0.9952476613518221,0.9933872397635426,0.9911217625066617,0.9884319769448058,0.9853053038559929,0.9817352701465937,0.9777208489876225,0.9732657656114087,0.9683778170010177,0.9630681810932118,0.9573508548993401,0.9512420672668374,0.9447597898127224,0.937923298614308,0.9307527921769828,0.9232690620957931,0.9154932121006745,0.9074464208648186,0.89914974392474,0.8906239502104969,0.8818893889452429,0.8729658829958384,0.8638726451069805,0.8546282138075824,0.8452504061252472,0.8357562845734942,0.8261621361817432,0.8164834939324308,0.8067350052256297,0.7969306295370855,0.7870835199676058,0.7772060699535271,0.7673099315439166,0.7574060365056922,0.7475046195789976,0.7376152433095315,0.7277468239750547,0.7179076582015963,0.7081054499324345,0.6983473374710455,0.6886399203690965,0.6789892859732795,0.6694010354812263,0.6598803093878074,0.6504318122294638,0.6410598365565231,0.6317682860822466,0.6225606979731446,0.6134402642582791,0.6044098523462531,0.5954720246476249,0.5866290573079301,0.5778829580625161,0.5692354832292492,0.5606881538589811,0.5522422710666655,0.5438989305682613,0.5356590364502237,0.5275233141995218,0.5194923230228542,0.5115664674840814,0.5037460084889807,0.4960310736462567,0.488421667033381,0.4809177279612329,0.4735189406705904,0.46622504197260495,0.45903562854317687,0.4519502143861843,0.44496823759210474,0.4380890666817547,0.43131200655738117,0.4246363040824087,0.4180611533102033,0.4115857003812975,0.40520904810761077,0.3989302602613208,0.3927483655851675,0.38666236154015,0.38067121780575564,0.3747738795470926,0.3689692704625366,0.36325629562479456,0.35763384412759014,0.3521007915495202,0.3466560022460053,0.34129833147965044,0.33602662739876565,0.33083973287325247,0.32573648719654014,0.32071572766177125,0.3157762910199675,0.31091701482746176,0.30613673868947094,0.3014343054062803,0.29680856202814365,0.9999999059793316,0.9999997765983456,0.9999995242879708,0.9999990707780345,0.9999983071003821,0.9999970879651998,0.9999952264655558,0.9999924893097457,0.9999885927433159,0.9999831992786482,0.9999759153057968,0.9999662896171448,0.9999538128659742,0.9999379177916002,0.9999179804765743,0.9998933221522088,0.9998632117641696,0.9998268690941626,0.9997834683633928,0.9997321422261675,0.9996719860654157,0.9996020625070462,0.9995214060764633,0.9994290279276888,0.9993239205830503,0.9992050626289828,0.999071423320944,0.9989219670575853,0.9987556576910399,0.9985714626464298,0.9983683568293777,0.9981453270815062,0.9979013725874335,0.9976355125135129,0.9973467860529729,0.9970342558244887,0.9966970103127769,0.9963341660632926,0.9959448696368419,0.9955282993314124,0.995083666679712,0.9946102177318379,0.9941072341331894,0.9935740340082294,0.9930099726610175,0.9924144431035944,0.991786876423344,0.99112674200038,0.9904335475858473,0.9897068392517873,0.988946201222928,0.9881512556004147,0.9873216619871112,0.9864571170237111,0.9855573538444512,0.9846221414608062,0.9836512840810785,0.9826446203733633,0.9816020226789227,0.9805233961825695,0.9794086780462251,0.9782578365114128,0.9770708699760304
0.9963636517845025,0.9950801339036933,0.9935299857751695,0.9916944378612566,0.9895574769111591,0.987105936197268,0.9843295126504161,0.9812207212864209,0.977774803943321,0.9739895677154097,0.9698652506897234,0.965404309637244,0.9606112222584655,0.9554922775496565,0.9500553653405169,0.9443097694699291,0.9382659680469052,0.9319354433537556,0.9253305031902337,0.9184641148253236,0.9113497522072215,0.9040012566692995,0.8964327110470434,0.8886583268749482,0.880692344150731,0.8725489430258028,0.8642421666957846,0.8557858830733658,0.847193614719618,0.8384786594236082,0.8296539379375247,0.820731988925981,0.8117249425753682,0.8026445000600345,0.7935019182211337,0.7843079988592457,0.7750730820875855,0.7658070432378362,0.7565192928545912,0.7472187793565778,0.7379139939828853,0.7286129776801085,0.719323329621526,0.7100522170821087,0.7008063864233087,0.6915921749692838,0.6824155235815353,0.6732819897620131,0.6641967611356753,0.6551646691824259,0.6461902031054331,0.6372775237381724,0.6284304774063082,0.619652609672817,0.6109471789057205,0.602317169617555,0.5937653055343267,0.5852940623593607,0.5769056802041674,0.568602175664385,0.5603853535240259,0.5522568180757826,0.5442179840490886,0.5362700871410243,0.528414246096961,0.5206512640276035,0.512981951297079,0.5054069248212921,0.4979266691925556,0.4905415448620892,0.4832517959527698,0.4760575577112903,0.4689588636095533,0.46195565210562645,0.45504777307498,0.4482349939229655,0.4415170053896818,0.4348934270584256,0.42836381257894973,0.42192765461667225,0.415584389538882,0.40933340184881745,0.40317402837831146,0.3971055622494576,0.39112725661551845,0.3852383281910147,0.3794379605806589,0.37372530741649657,0.3680994953123173,0.362559626644089,0.35710478216485725,0.3517340234622402,0.34644639526633836,0.3412409276155747,0.33611663788766866,0.3310725327026628,0.9999430079357688,0.9999108877838553,0.9998684595953141,0.9998143907012553,0.9997474008041024,0.9996662585608587,0.999569778906079,0.9994568211784066,0.9993262880322927,0.9991771249665026,0.9990083202755297,0.9988189052474614,0.9986079548345699,0.9983745865126241,0.998117962604519,0.9978372890115272,0.9975318154929752,0.997200835453181,0.996843685569158,0.9964597452673696,0.9960484360624642,0.9956092207735199,0.9951416026344393,0.9946451243152329,0.9941193668703308,0.9935639486290531,0.9929785240420987,0.9923627824965423,0.9917164471104276,0.9910392735166788,0.9903310486447657,0.9895915920188907,0.9888207446142188,0.9880183824266813,0.9871844055744393,0.9863187395639101,0.985421334175262,0.9844921623769637,0.9835312192710798,0.9825385210705461,0.9815141041092607,0.9804580238855141,0.9793703541389762,0.9782511859612258,0.9771006269396083,0.9759188003340281,0.9747058442861462,0.9734619110603381,0.9721871663156716,0.9708817884080857,0.9695459677219027,0.9681799060297518,0.966783815879957,0.9653579200104239,0.9639024507880362,0.962417649672588,0.9609037667042654,0.9593610600137064,0.9577897953536788,0.9561902456514451,0.9545626905808806,0.9529074161534629,0.9512247143272524
0.9998990325334565,0.9998253162322778,0.9997144321321919,0.9995549088322392,0.9993338969617102,0.9990374017392798,0.9986505491953837,0.9981578700389665,0.9975435883541033,0.9967918971031847,0.995887227301466,0.9948144840479402,0.9935592598018256,0.9921080167609639,0.9904482383337581,0.9885685499938675,0.986458810727174,0.9841101769433795,0.9815151411692155,0.9786675481053865,0.9755625907511547,0.972196789311167,0.9685679555265833,0.9646751449402639,0.9605185994329933,0.9560996821699309,0.951420806885876,0.9464853800611183,0.9412976572989086,0.9358627635922481,0.9301865502261226,0.9242755333970156,0.9181368185202451,0.9117780268440285,0.9052072248687034,0.8984328569548001,0.8914636814032572,0.8843087102040719,0.8769771525750482,0.8694783623489225,0.8618217892139551,0.8540169337689661,0.8460733063177577,0.8380003892989447,0.8298076032244841,0.8215042759828598,0.8130996153501764,0.8046026845436713,0.7960223806467531,0.787367415732112,0.7786463005091924,0.7698673303240184,0.7610385733425906,0.7521678607535667,0.743262778831379,0.7343306627071426,0.7253785917014107,0.7164133860799355,0.7074416051008914,0.6984695462294451,0.6895032454029686,0.6805484782375474,0.6716107620736584,0.6626953587659062,0.6538073371499619,0.6449513407475626,0.6361319470700719,0.6273534358536103,0.6186198535904655,0.6099350191478424,0.6013025296398283,0.5927257665038885,0.5842079017376808,0.5757519042561278,0.567360546332581,0.5590364100915203,0.5507818940235903,0.5425992194968833,0.5344904372412473,0.5264574337850555,0.5185019378263059,0.5106255265221639,0.5028296316831172,0.4951155458597943,0.48748442831220595,0.4799373108527494,0.47247510355572475,0.4650986003274124,0.45780848433192567,0.45060533326910934,0.4434896245017095,0.43646174002988625,0.4295219713119137,0.422670523930591,0.41590752210549203,0.40923301305172977,0.9999977676147211,0.9999952925178084,0.9999910274575733,0.9999842004589143,0.9999738918978339,0.9999590426672971,0.9999384651516623,0.9999108559518016,0.9998748095805264,0.999828832556135,0.9997713574853281,0.9997007568491264,0.9996153564503911,0.9995134474884679,0.9993932993633545,0.9992531703297339,0.999091318030856,0.998906009103578,0.9986955279865493,0.9984581849436782,0.9981923233219967,0.9978963260682258,0.99756862153221,0.997207688588218,0.9968120611071281,0.9963803318138763,0.9959111555653772,0.9954032520844941,0.9948554081856359,0.9942664795272372,0.9936353919257824,0.9929611445805971,0.9922428014981907,0.9914795051404792,0.9906704674900688,0.9898149718281217,0.9889123720892629,0.987962091990005,0.9869636239554872,0.9859165278678484,0.9848204296580889,0.9836750197618337,0.982480051458005,0.9812353391080316,0.9799407563119058,0.9785962339961157,0.97720175844727,0.9757573693040609,0.9742631575191139,0.9727192633012199,0.9711258740474722,0.9694832222738902,0.9677915835522567,0.9660512744600803,0.9642626505498295,0.9624261043429009,0.9605420633531124,0.9586109881439261,0.9566333704230335,0.9546097311774411,0.9525406188517049,0.9504266075715512,0.9482682954147099
0.9989121635548551,0.9984959470712607,0.9979836945419855,0.9973663544752362,0.9966354568757079,0.9957831556590471,0.9948022600215098,0.993686256310961,0.9924293236709417,0.9910263312666485,0.9894728497465926,0.9877651358657724,0.9859001216935451,0.9838753970395118,0.9816891877565358,0.9793403305927987,0.9768282452377683,0.9741529041700911,0.971314800870893,0.9683149169163707,0.9651546884111339,0.9618359721705151,0.9583610120076363,0.9547324054305641,0.9509530710073216,0.9470262166124062,0.9429553087281286,0.9387440571733767,0.9343963303972448,0.9299162126989964,0.9253079232378043,0.9205758058435944,0.9157243065150673,0.9107579523751625,0.9056813320659503,0.9004990775542197,0.8952158473103528,0.8898363108162168,0.8843651343525066,0.8788069680120439,0.8731664338827865,0.867448115342544,0.8616565474064924,0.8557962080683815,0.8498715105767235,0.8438867965881306,0.8378463301412286,0.8317542923961607,0.8256147770865078,0.8194317866324556,0.8132092288661683,0.8069509143225462,0.8006605540508211,0.7943417579047225,0.7879980332712477,0.781632784200325,0.7752493108998807,0.7688508095629932,0.7624403724959082,0.7560209885177368,0.7495955436045934,0.743166821752804,0.7367375060376091,0.7303101798454643,0.7238873709638878,0.7174713822314193,0.7110645495456003,0.7046690726552466,0.6982870597279077,0.691920529248457,0.6855714119784927,0.679241552965244,0.6729327135896711,0.6666465736443443,0.660384733432566,0.654148715880969,0.6479399686585858,0.6417598662960445,0.635609712299205,0.629490741252118,0.6234041209047425,0.6173509542413547,0.6113322815260459,0.6053490823221299,0.5994022774826726,0.5934927311097202,0.5876212524801238,0.5817885979361703,0.5759954727394981,0.5702425328870304,0.5645303868878936,0.5588595975004912,0.5532306834290976,0.5476441209795097,0.5421003456734442,0.536599753821522,0.9999615802423527,0.9999402482127301,0.9999120241460873,0.9998758945493399,0.9998308170359183,0.9997757096152878,0.9997094409738628,0.9996308222112739,0.9995386004623068,0.9994314546688362,0.9993079936364094,0.9991667563930786,0.9990062150501587,0.9988247783301125,0.9986207996119878,0.9983925838933682,0.998138397286217,0.9978564772089359,0.9975450432273532,0.9972023082632622,0.9968264899129254,0.996415821646509,0.9959685636905604,0.9954830134276071,0.9949575151783482,0.9943904692617983,0.9937803402563512,0.9931256644097292,0.9924250561678568,0.9916772138118594,0.990880924208647,0.9900350695909401,0.98913861918519,0.9881906483329037,0.987190328899321,0.9861369327924788,0.9850298321009442,0.9838684986352161,0.9826525029281609,0.9813815127495294,0.9800552911885277,0.9786736943567172,0.9772366687613674,0.975744248396863,0.9741965515990131,0.972593777704172,0.9709362035520928,0.9692241798683567,0.9674581275592347,0.9656385339488415,0.9637659489855932,0.961840981442198,0.9598642951307924,0.9578366051523387,0.9557586741970654,0.9536313089105468,0.9514553563379856,0.9492317004573996,0.9469612588106732,0.9446449792398761,0.9422838367348048,0.9398788303964009,0.9374309805195382
0.8590911951044167,0.8354768020467733,0.8113975109456693,0.7870855268118543,0.7627358469497314,0.7385099707309892,0.7145398601145097,0.6909318225878301,0.6677701765788789,0.6451203849042033,0.6230322036618262,0.6015420798623713,0.5806753999153556,0.5604483869572598,0.5408697198835551,0.5219419079782593,0.503662453178065,0.48602482925440843,0.4690193040931686,0.4526336281203573,0.4368536089436092,0.4216635895455663,0.40704684491442134,0.39298590983488974,0.37946284867755753,0.3664594763942392,0.3539575385259691,0.34193889602201605,0.330385483797865,0.3192796432506096,0.3086040334970531,0.2983417280766648,0.28847625698175183,0.2789916371650796,0.2698723935303993,0.26110357209259555,0.2526707467250134,0.244560020684294,0.2367580239112469,0.22925190694440406,0.22202933214629844,0.21507846282724413,0.20838795075415842,0.20194692244996212,0.19574496461994098,0.18977210898318211,0.18401881673810125,0.17847596284975636,0.1731348203118728,0.16798704450730084,0.163024657766095,0.15824003419986096,0.15362588487381465,0.1491752433636368,0.14488145173224548,0.1407381469516735,0.1367392477870114,0.1328789421525991,0.12915167494508895,0.12555213635347098,0.12207525064248394,0.11871616540289587,0.11547024125981252,0.1123330420283532,0.10930034513970129,0.1063680526592089,0.10353230370840724,0.10078938492424742,0.0981357431708353,0.09556797809965444,0.09308283505996905,0.09067719834485409,0.08834808475852099,0.08609263749089079,0.08390812028570702,0.08179191188886507,0.07974150076404468,0.07775448006316657,0.07582854283964387,0.07396147749285277,0.07215116343270686,0.07039556695367664,0.06869273730804942,0.06704080296866831,0.06543796807182843,0.06388250903143129,0.062372771315912554,0.0609071663798575,0.05948416874260629,0.05810231320652081,0.05676019220794439,0.05545645329422837,0.05418979672052678,0.05295897316037743,0.05176278152438488,0.05060006688161177,0.9999769007064301,0.9999635046763574,0.9999456956110333,0.9999229228043395,0.9998946839635203,0.9998605234537735,0.9998200286069095,0.9997728247311618,0.999718569360247,0.9996569461349867,0.9995876586163384,0.9995104242576316,0.9994249688569689,0.9993310207358268,0.9992283068974163,0.9991165483811216,0.9989954569387822,0.9988647322162811,0.9987240595659447,0.9985731084659273,0.9984115315119435,0.9982389639387819,0.9980550236236307,0.9978593115199739,0.9976514124693309,0.9974308963380896,0.9971973194278155,0.9969502261094649,0.996689150634634,0.9964136190801742,0.9961231513859938,0.9958172644931018,0.9954954703414977,0.9951572840852563,0.9948022221588873,0.9944298052989305,0.9940395605028458,0.9936310229010378,0.9932037375292493,0.9927572609911546,0.9922911630033738,0.9918050278172584,0.9912984555137211,0.9907710631690808,0.9902224858913811,0.9896523777279461,0.9890604124460614,0.9884462841896129,0.987809708015336,0.9871504203129842,0.9864681791142688,0.9857627642958604,0.9850339776820592,0.9842816430529933,0.9835056060643568,0.9827057340847993,0.9818819159570976,0.9810340616892348,0.980162102081427,0.9792659882950506,0.9783456913692677,0.9774012016909953,0.9764325284236645
0.9662557314384218,0.9581489092157561,0.9493080245322808,0.9398033579076853,0.9297053981525923,0.9190831219879331,0.9080028264195916,0.8965273743535499,0.8847157652117789,0.8726228288952348,0.8602992765486724,0.8477916677028752,0.8351425521538742,0.8223906435280129,0.8095710246288145,0.7967153704844399,0.7838521789287487,0.7710070014842804,0.7582026695083934,0.7454595121948914,0.7327955642299756,0.7202267617875837,0.707767126194123,0.695428935056246,0.6832228809729972,0.6711582181797809,0.6592428976221822,0.6474837298969556,0.6358863430926163,0.6244555215873816,0.6131951441799487,0.6021083102542939,0.5911974188822128,0.5804642408464729,0.5699099841603313,0.5595353536237271,0.549340604920262,0.5393255937231136,0.529489820242957,0.5198324696172955,0.5103524485085837,0.5010484182483783,0.49191882483650784,0.48296192607799543,0.4741758161160914,0.4655584475972913,0.457107651683492,0.4488211561074095,0.44069660144993006,0.4327315558021036,0.424923527959874,0.4172699792863285,0.4097683343640802,0.40241599054931576,0.39521032652894933,0.3881487099731354,0.38122850436702227,0.37444707509802877,0.36780179486799885,0.361290048493301,0.3549092371502164,0.3486567821177545,0.3425301280653111,0.3365267459282806,0.3306441741454325,0.32487986510726197,0.3192314217769238,0.3136964419684931,0.3082725592137113,0.302957443874895,0.2977488040559024,0.29264438633130585,0.28764197631209915,0.282739399064596,0.2779345193976634,0.27322524203205223,0.2686095116643343,0.26408531293680665,0.2596506703236888,0.25530364794298377,0.25104234930251645,0.24686491698786972,0.24276953229922846,0.2387544148434846,0.2348178220873605,0.23095804887677202,0.22717342692715214,0.22346232428900914,0.2198231447925849,0.21625432747510087,0.2127543459937441,0.2093217080272326,0.20595495466851618,0.2026526598109144,0.19941342952975624,0.1962359014613758,0.9971837761025215,0.9960467972771222,0.9946946905448774,0.9931275132470232,0.9913475017569227,0.989358554029219,0.9871658308896625,0.9847754413234532,0.9821941926539546,0.979429391034682,0.9764886814932908,0.9733799194287225,0.9701110729227042,0.9666901178971102,0.9631250045378633,0.9594235831714831,0.9555935680790832,0.9516425051609645,0.9475777471372078,0.9434064349542105,0.9391354843002697,0.9347715763224195,0.9303211517911524,0.9257904080864486,0.9211852984831441,0.916511533300305,0.9117745825512983,0.9069796797912592,0.9021318269087971,0.8972357996507663,0.8922961537041243,0.8873172478088849,0.8823031841682333,0.8772579147977031,0.8721851824756521,0.867088544352489,0.8619713790443845,0.8568368936629754,0.8516881307445998,0.8465279750500505,0.8413591602120607,0.8361842752129862,0.8310057706795265,0.8258259649849865,0.8206470501526405,0.815471097556288,0.8103000634161889,0.8051357940902866,0.7999800311620352,0.7948344163273002,0.7897004960836964,0.7845797262264825,0.7794734761556779,0.7743830329995087,0.76930960555961,0.7642543280836344,0.7592182638710604,0.7542024087180819,0.7492076942074785,0.7442349908493509,0.7392851110785497,0.7343588121145447,0.7294567986893636
0.9904092165663466,0.9872356432332465,0.9835302031345836,0.9792934382061173,0.9745331069168115,0.9692628272740946,0.9635008488184377,0.9572689712122907,0.9505916227902362,0.9434950238446993,0.9360065912397043,0.9281543481185773,0.9199664892123101,0.9114710226937751,0.9026954865156792,0.8936667277089281,0.8844107344643423,0.8749525121338254,0.8653159955124025,0.8555239908735036,0.8455981422173271,0.8355589170573713,0.8254256078202914,0.8152163455791556,0.8049481233910895,0.7946368269784505,0.7842972708887982,0.773943273049681,0.7635875597723262,0.75324201692694,0.7429175975422634,0.7326244017869257,0.7223717222199718,0.7121680883247288,0.7020213100128001,0.6919385198616965,0.6819262139125454,0.6719902909057666,0.6621360898744196,0.6523684260487476,0.642691625052596,0.6331095553940018,0.6236256592692853,0.6142429817132181,0.6049641981379646,0.5957916403110344,0.5867273208279434,0.5777729561390031,0.5689299881919996,0.5601996047537489,0.5515827584738237,0.5430801847533648,0.5346924184809346,0.5264198096959853,0.5182625382388132,0.510220627443912,0.5022939569315237,0.4944822745499523,0.48678520751889853,0.47920227282175676,0.4717328868924747,0.4643763746402791,0.4571319778533032,0.44999886301995196,0.4429761749545115,0.43606285743821765,0.42925793978518795,0.4225603550950418,0.41596899275419713,0.40948270346481397,0.4031003039078649,0.3968205810643208,0.39064229621697416,0.3845641886540123,0.3785849790941441,0.37270337285182864,0.36691806275999284,0.36122773186650475,0.35563105591964755,0.3501267056568477,0.3447133489100037,0.33938965253988945,0.3341542842113155,0.32900591401995016,0.3239432159810122,0.3189648693893697,0.31406956005995884,0.309255981456852,0.30452283571875705,0.2998688345882181,0.29529270025130855,0.29079316609415906,0.28636897738224154,0.28201889186794354,0.27774168033159113,0.273536127060746,0.9999548454507066,0.9999226242977061,0.9998761325538422,0.9998120910420161,0.9997270950693571,0.9996176728741191,0.9994803387425473,0.9993116399780047,0.9991081975123759,0.9988667402141442,0.9985841331642438,0.9982574003154134,0.9978837426982224,0.9974605488284755,0.9969854073747327,0.9964561102104642,0.9958706554620752,0.9952272474518,0.994524294538346,0.9937604052320519,0.9929343829175998,0.99204521947571,0.9910920880565285,0.9900743352220329,0.9889914726428459,0.9878431685063485,0.9866292387677897,0.9853496383539605,0.984004452409719,0.9825938876609289,0.981118263952972,0.9795780112414161,0.9779736409046391,0.9763057687890128,0.9745750875417538,0.9727823645567446,0.97092843523191,0.9690141965574907,0.967040601035318,0.9650086509262534,0.9629193928205753,0.9607739125242141,0.9585733302522632,0.9563187961200623,0.95401148592132,0.9516525971821548,0.9492433454795532,0.9467849610125283,0.9442786854141941,0.9417257687930143,0.9391274669916142,0.9364850390517641,0.9337997448744018,0.9310728430638815,0.9283055889459857,0.9254992327496018,0.9226550179423677,0.9197741797109801,0.9168579435772725,0.9139075241415736,0.9109241239452613,0.9079089324448261,0.9048631250901505
0.9978452805059483,0.9967853720259008,0.9954084933545476,0.9936771393155088,0.9915587319123417,0.9890261407237597,0.9860579056695905,0.9826382230211911,0.9787567587413297,0.9744082993417371,0.9695923814978442,0.9643128058733548,0.9585771571570786,0.9523963138337813,0.9457839690088975,0.9387561730738365,0.9313309054245479,0.9235276796467411,0.9153671844357177,0.906870960912121,0.8980611158237811,0.8889600692987958,0.8795903352607214,0.8699743322709724,0.8601342223756988,0.8500917754639431,0.8398682566587015,0.8294843691185132,0.8189600417103499,0.8083145788875454,0.797566479761981,0.7867334415288972,0.7758323393262154,0.7648792153052916,0.7538892755614893,0.742876893716938,0.7318556200820572,0.720838195446347,0.7098365686624215,0.6988619172904876,0.687924670663824,0.6770345348197829,0.6662005188160541,0.6554309620189904,0.6447335620103894,0.6341154028118778,0.623582983172583,0.6131422447067251,0.6027985997036248,0.5925569584640102,0.5824217560437877,0.5723969783101879,0.5624861872356943,0.552692545372855,0.5430188394682653,0.5334675031869849,0.5240406389296961,0.5147400387342612,0.5055672042611744,0.4965233658689868,0.48760950079118615,0.47882635043047156,0.47017443678995335,0.46165407806366654,0.45326545877403734,0.44500842142930946,0.43688281455138295,0.42888828108395205,0.42102432641487453,0.4132903294834335,0.40568555324049327,0.3982091544902967,0.3908601931422732,0.3836376409006782,0.3765403894192703,0.36956725794749995,0.36271700049390854,0.35598831253159746,0.34937983726976646,0.3428901715144208,0.3365178711404565,0.3302614561964075,0.32411941566225355,0.3180902118797745,0.3121722846740594,0.30636405518391807,0.3006639294180867,0.2950703015533035,0.2895815569895303,0.2841960751768229,0.2789122322276096,0.2737284033274196,0.2686429649564126,0.26365429693340353,0.25876078429343774,0.253960819009375,0.9999736773972092,0.9999524097335942,0.9999204890624184,0.9998751487631615,0.9998135010755331,0.9997325952883965,0.9996294678624044,0.9995011845852092,0.9993448753626656,0.9991577623797225,0.9989371824077584,0.9986806040180317,0.9983856409360669,0.9980500591119662,0.9976717855984649,0.9972489099543799,0.9967796858043131,0.9962625301338207,0.9956960211135883,0.9950788947406792,0.9944100405429519,0.993688496555946,0.9929134437494662,0.9920842000532449,0.9912002141070031,0.9902610588394815,0.9892664249631936,0.9882161144563824,0.9871100340905986,0.9859481890512016,0.9847306766886073,0.9834576847560345,0.9821294683842182,0.9807463697826607,0.9793087959970884,0.9778172177826407,0.976272164562183,0.974674219613902,0.9730240154882466,0.9713222296524168,0.9695695803591006,0.9677668227349487,0.9659147450833309,0.9640141653951869,0.9620659280612354,0.960070900778404,0.9580299716430843,0.9559440464236396,0.9538140460045392,0.9516409039944731,0.949425564490876,0.9471689799933887,0.9448721094589304,0.9425359164912396,0.940161367657933,0.937749430928353,0.9353010742257062,0.9328172640872341,0.9302989644263986,0.9277471353913174,0.9251627323139269,0.9225467047446019,0.9198999955671922
0.9703749110426931,0.961984543855772,0.9525897977343663,0.9422641919141803,0.9310889797104742,0.9191493393443391,0.9065314568412206,0.8933203537478112,0.8795983430636248,0.8654438510542373,0.8509308444163489,0.8361283189689921,0.8211001201889931,0.8059049039871162,0.7905962158335473,0.7752226536583794,0.7598280878160342,0.7444519176847755,0.7291293494473897,0.7138916835094156,0.6987666030642788,0.683778457683029,0.6689485376316309,0.6542953360155934,0.6398347969121424,0.6255805484475969,0.6115441203703548,0.5977351916447269,0.5841615943227711,0.570829761272198,0.5577446997415259,0.5449101824420068,0.5323288798223197,0.5200024806709208,0.507931801868368,0.49611688809490156,0.484557102270538,0.47325120746953925,0.46219744101115645,0.45139358138607244,0.4408370086345192,0.43052475874876805,0.42045357263034877,0.4106199400915518,0.4010201393518322,0.3916502724429342,0.38250629690197807,0.3735840540994779,0.364879294519243,0.356387700279335,0.3481049051575962,0.3400265123616603,0.33214811026167146,0.32446528628405735,0.3169736391465193,0.3096687895977814,0.3025463898104717,0.2956021315616857,0.2888317533231795,0.2822310463716905,0.27579586001944895,0.26952210605547317,0.26340576247963576,0.2574428766036696,0.2516296057669918,0.2459620656860148,0.24043656401413216,0.2350494458754827,0.22979713384974698,0.22467612847793053,0.21968300848857933,0.21481443077726362,0.21006713016893364,0.20543791898981412,0.20092368647285455,0.1965213980183415,0.1922280943291099,0.18804089043781103,0.18395697464192098,0.1799736073605507,0.1760881199256661,0.17229791331899777,0.16860045686473557,0.1649932868870141,0.16147400534022163,0.1580402784192889,0.15468983515630594,0.15142046600910647,0.1482300214468023,0.14511641053666763,0.1420775995362432,0.1391116104940544,0.13621651986190622,0.13339045712133463,0.1306316034264409,0.12793819026503017,0.9990128953395531,0.9986278062661279,0.9981681666412203,0.9976312744185686,0.9970148185584434,0.9963168412898628,0.9955357155889888,0.9946701285600966,0.9937190672356647,0.9926818048519352,0.9915578867214248,0.990347115409475,0.9890495374595106,0.9876654185935484,0.9861952403377371,0.9846396751414012,0.9829995722077225,0.9812759415577762,0.979469938561077,0.9775828490475519,0.9756160750861387,0.9735711214891793,0.9714495830797462,0.9692531327407828,0.966983510250206,0.9646425118944132,0.9622319808435987,0.9597537982654306,0.9572098751486662,0.9546021448047994,0.9519325560135842,0.9492030759526536,0.9464156480109117,0.9435722411308238,0.9406748090520209,0.9377252951230366,0.9347256285675253,0.9316777211529241,0.9285834642313201,0.925444726123847,0.9222633498215339,0.9190411509771149,0.9157799161638965,0.9124814013793107,0.909147330772287,0.9057793955749975,0.9023792532209116,0.8989485266323942,0.8954888036623206,0.8920016366753382,0.8884885422555067,0.8849510010280756,0.8813904575841057,0.8778083204975584,0.8742059624252917,0.8705847202811897,0.8669458954763777,0.8632907542181294,0.8596205278607121,0.8559364133019757,0.8522395734200293,0.8485311375448394,0.8448122019600346
0.9777384444170919,0.972101475156998,0.9658582882544636,0.9590443210935302,0.9516980523983718,0.943859652644851,0.9355699391001476,0.926869578197259,0.9177985023175621,0.908395409238045,0.8986975393386282,0.8887404018965205,0.8785576538778306,0.868181024471191,0.857640286211684,0.8469632615530638,0.8361758560124942,0.8253021108425502,0.8143642696604357,0.8033828546509283,0.7923767489122711,0.7813632822778862,0.7703583185577509,0.7593763426311555,0.7484305462111827,0.7375329114099918,0.72669429147844,0.7159245239819032,0.7052323616844524,0.694625757745018,0.6841117886240538,0.6736967526920331,0.663386229164252,0.6531851333900862,0.6430977686136082,0.6331278743423813,0.6232786714744151,0.6135529043412083,0.6039528798286459,0.594480503738241,0.5851373145495279,0.5759245147409712,0.5668429998219928,0.5578933852230412,0.5490760311843285,0.540391065777176,0.5318384061850163,0.5234177783641571,0.5151287351975086,0.506970673247713,0.4989428482095299,0.49104438915499,0.4832743116587544,0.47563152988530794,0.46811486771411104,0.4607230689736375,0.4534548068502912,0.44630869253359234,0.4392832831546693,0.4323770890710397,0.42558858054685317,0.41891619387421997,0.41235833697794405,0.40591339454288233,0.39957977446498416,0.39335574434775433,0.38723968817564947,0.38122994061755905,0.3753248327614133,0.3695226950536063,0.3638218599656213,0.35822066440906547,0.3527174519187533,0.347310574621993,0.34199839501088936,0.336779287533199,0.3316516400161254,0.32661385493634687,0.32166435054858,0.3168015618840536,0.3120239416294102,0.30732996089575904,0.3027181098868745,0.2981868984748495,0.2937348566908877,0.28936053513833654,0.28506250533452376,0.28083935998746207,0.2766897132130246,0.2726122006977685,0.268605479812187,0.264668229678808,0.2607991511992113,0.2569969670437352,0.2532604216073393,0.24958828093483623,0.9992000403062583,0.9988363864522067,0.998386711468413,0.9978466140499667,0.9972127902698481,0.9964828947394605,0.9956554150514086,0.9947295580543385,0.9937051481315775,0.9925825368742148,0.9913625233125487,0.9900462837742023,0.9886353128447785,0.9871313601198742,0.9855363974806195,0.9838525691567599,0.9820821586695323,0.9802275582382542,0.9782912423399768,0.9762757449084812,0.9741836397184551,0.97201752355452,0.9697800018130409,0.967473676227569,0.9651011344468196,0.9626649412276389,0.9601676310349481,0.9576117018665994,0.9549996101438223,0.9523337665278728,0.9496165325409407,0.9468502271644359,0.9440370877946505,0.9411793239035342,0.9382790792869712,0.9353384404705272,0.9323594363290051,0.9293440379923523,0.9262941589961341,0.9232116556400447,0.9200983275225261,0.9169559182236088,0.9137861161116156,0.9105905552524817,0.9073708164031627,0.9041284280729891,0.9008648676389257,0.8975815625025293,0.8942798912780211,0.8909611850023045,0.8876267283589996,0.884277760909671,0.8809154783263746,0.8775410336204995,0.8741555383636135,0.8707600638966757,0.867355642524546,0.8639432686932171,0.8605239001476345,0.8570984590683495,0.8536678331855857,0.8502328768695885,0.8467944121963814
0.9998710187376916,0.9997908568679071,0.9996768644697621,0.9995206538258703,0.999313189385621,0.9990449417486025,0.9987060455562436,0.9982864554520583,0.9977760964687719,0.9971650000157644,0.9964434361339461,0.995602023560126,0.9946318290494112,0.9935244509351263,0.9922720879018994,0.9908675935288879,0.9893045174178674,0.9875771338989664,0.9856804594188127,0.9836102597741283,0.9813630483694823,0.9789360766606295,0.9763273179029053,0.973535445264437,0.9705598052922099,0.9674003876399206,0.9640577918837558,0.9605332041922463,0.9568283129649037,0.952945341385803,0.9488869629187211,0.944656274527157,0.940256758857029,0.9356922471139574,0.930966882892291,0.9260850871645978,0.9210515245971749,0.9158710713189477,0.9105487842376154,0.905089871967719,0.8994996674101108,0.8937836020007127,0.8879471816281477,0.8819959642044571,0.8759355388603712,0.8697715067261721,0.8635094632508303,0.857154982005509,0.8507135999125282,0.8441908038372288,0.8375920184776826,0.8309225954857092,0.8241878037520151,0.8173928207883217,0.8105427251400179,0.8036424897640011,0.7966969763079066,0.7897109302287817,0.7826889766913356,0.7756356171881964,0.7685552268269995,0.7614520522316455,0.7543302100076092,0.7471936857237701,0.7400463809372605,0.732891922825255,0.7257339497565181,0.7185759217822317,0.711421169087972,0.7042728932174886,0.6971341685496402,0.6900079439999761,0.6828970449204937,0.6758041751730076,0.6687319193534184,0.6616827451458885,0.6546590057875907,0.6476629426262258,0.6406966877539877,0.6337622667030045,0.6268616011885866,0.6199965118878054,0.6131687212420681,0.6063798562733878,0.5996314514050413,0.5929249512782161,0.5862617135570921,0.5796430117155915,0.5730700377997608,0.5665439051604199,0.5600656511513367,0.5536362397887615,0.5472565643686774,0.5409274500386215,0.5346496563213617,0.5284238795881433,0.9999930236065095,0.9999862481363282,0.9999752203827563,0.9999583975590474,0.9999340243963897,0.9999001619943922,0.9998547192244223,0.999795484866801,0.9997201591892616,0.9996263840535026,0.9995117709432565,0.9993739265444533,0.999210475981759,0.9990190819356822,0.9987974638556109,0.9985434119527495,0.9982548000751563,0.997929596098849,0.9975658702727558,0.9971618017102879,0.996715683218571,0.9962259246500478,0.9956910549518069,0.9951097230767189,0.9944806979081765,0.99380286733752,0.9930752366205594,0.9922969261272804,0.9914671685870557,0.990585305920606,0.9896507857396424,0.9886631609591722,0.987622072522118,0.9865272650036809,0.9853785694516611,0.9841759023295368,0.9829192612440313,0.9816087206836644,0.9802444277939062,0.9788265982104621,0.9773555119686202,0.9758315095034199,0.9742549877526006,0.9726263963718591,0.9709462340698117,0.9692150450681961,0.9674334156912656,0.9656019710869214,0.9637213720809602,0.9617923121647942,0.9598155146161352,0.9577917297514189,0.9557217323081285,0.9536063189546787,0.9514463059251085,0.9492425267754973,0.946995830258755,0.9447070783142343,0.942377144168465,0.9400069105431956,0.9375972679668724,0.9351491131856366,0.9326633476699295
0.9465571293794749,0.9367090932152218,0.9262968517561533,0.9153926523915871,0.9040649678408864,0.892377928625782,0.8803910375681481,0.8681590849349076,0.8557322240050831,0.8431560371718848,0.8304718701911074,0.8177169967053095,0.8049249050968846,0.7921255718285883,0.7793457331639421,0.7666091494081746,0.7539368578365475,0.7413474119509521,0.7288571057682461,0.7164801826007174,0.7042290283195443,0.6921143494555625,0.6801453367323924,0.6683298147782132,0.6566743788488628,0.6451845194349367,0.6338647356327823,0.6227186749233162,0.6117490789249723,0.6009580905546251,0.590347181871596,0.5799172608623719,0.5696687342135559,0.5596015640346835,0.5497153190826086,0.5400092209935873,0.5304821859861707,0.5211328624577284,0.5119596648599749,0.5029608042042158,0.4941343155151279,0.485478082522593,0.47698985985431047,0.46866729296743076,0.46050793603516094,0.452509267983986,0.44466870685871934,0.4369836226758471,0.4294513489104443,0.4220691927481853,0.4148344442214848,0.40774438433753024,0.4007962922957308,0.39398745188286355,0.38731515712581777,0.38077671727427176,0.37436946117877284,0.36809074112349627,0.36193793616734204,0.3559084550419577,0.3499997386506733,0.344209262208179,0.3385345370570145,0.3329731121935271,0.32752261142600686,0.3221805901189172,0.31694475353010176,0.31181281169800185,0.30678251652929217,0.30185166211358994,0.2970180849043489,0.2922796637806784,0.28763432000343164,0.2830800170776249,0.2786147605321098,0.27423659762635894,0.26994361699329245,0.26573394822619634,0.2616057614170161,0.2575572666525884,0.2535867134747405,0.24969239030959345,0.24587262387088485,0.24212577854163742,0.23845025573806877,0.2348444932592404,0.2313069646255824,0.22783617840910692,0.22443067755782622,0.22108903871662205,0.21780987154657114,0.2145918180445107,0.2114335518644244,0.2083337776420547,0.20529123032397328,0.20230467450220382,0.9956557963149845,0.9941413505252713,0.9923968602448986,0.9904280674781685,0.9882418540852496,0.9858458760331207,0.9832483071852172,0.9804576506473202,0.9774825976808909,0.9743319203569765,0.9710143887922685,0.9675387067567496,0.9639134674841576,0.960147089943714,0.9562478243930307,0.9522237048851574,0.9480825372950753,0.9438318861479424,0.9394790653380988,0.935031132073706,0.9304948834988837,0.9258768555369384,0.9211833235716017,0.9164203046428503,0.9115935608830965,0.9067086039606403,0.9017707003318943,0.8967848771333011,0.8917559285689542,0.8866884226714351,0.8815867083318635,0.876454939624851,0.8712970147519963,0.8661166858327409,0.8609174980701226,0.8557028140737704,0.8504758210750379,0.8452395380253107,0.8399968225537346,0.8347503777654505,0.8295027588655304,0.8242563795973664,0.8190135184872529,0.813776324889476,0.8085468248283809,0.8033269266357123,0.7981184263830639,0.7929230131105345,0.787742273853758,0.7825776984723355,0.7774306842833982,0.7723025405046039,0.767194492511299,0.7621076859129321,0.7570431904540474,0.7520020037453671,0.7469850548305907,0.7419932075945923,0.7370272640187188,0.7320879672888687,0.7271760047619771,0.7222920107964591,0.7174365694520545
0.9755858461448128,0.9706575106100416,0.9653612847183536,0.9597257866731929,0.9537791274747799,0.9475485737754316,0.9410603209290832,0.9343393479916958,0.9274093451483056,0.9202926277661068,0.9130101988008749,0.90558171979089,0.8980255557017245,0.8903588199142864,0.8825974267990258,0.8747561489403276,0.8668486768214333,0.8588876793500755,0.8508848640402176,0.8428510359974286,0.8347961551085686,0.8267293910288909,0.8186591757054135,0.8105932532852075,0.8025387273393513,0.7945021053940856,0.7864893408050807,0.7785058985409427,0.7705566858533852,0.7626462460094058,0.7547786840719342,0.7469577234510854,0.73918673380863,0.7314687570397381,0.7238065314493564,0.7162025142370373,0.7086589023996949,0.7011776521568511,0.6937604969977222,0.6864089644441193,0.6791243916177333,0.6719079396950415,0.6647606073278548,0.6576832431025051,0.6506765571058348,0.6437411316615722,0.636877431296307,0.6300858119901808,0.6233665297635334,0.6167197486471263,0.6101455480801614,0.6036439297771496,0.5972148241017263,0.5908580959827526,0.5845735504054871,0.5783609375082289,0.5722199573126244,0.5661502641137812,0.5601514705544248,0.5542231514055832,0.5483648470746368,0.5425760668600685,0.5368562919708404,0.531204978327031,0.5256215960732266,0.5201054838768461,0.5146560739984372,0.5092727453513822,0.5039548627849655,0.49870177886036227,0.49351283549519404,0.48838736548580935,0.48332469391581356,0.478324139458755,0.4733850155823279,0.46850663166092427,0.4636882940028957,0.458929306798431,0.45422897299355347,0.4495865950953487,0.4450014759131863,0.44047291924035886,0.43600023048027,0.43158271722100194,0.4272196897618428,0.4229104615951002,0.41865434984630284,0.4144506756756791,0.41029876464360654,0.4061979470425373,0.4021475581977418,0.3981469387390507,0.39419543484562375,0.39029239846564606,0.386437187512715,0.38262916604056935,0.9993739323397595,0.9990630202519789,0.9986713029373855,0.9981939625030753,0.9976273682987613,0.9969689124297433,0.9962168623584464,0.9953702302742564,0.9944286590305942,0.993392323297858,0.9922618442843355,0.9910382163553885,0.9897227462492554,0.9883169900503174,0.9868227198796857,0.9852418754613513,0.9835765320763109,0.9818288712825639,0.9800011558287556,0.9780957081761935,0.9761148921283966,0.9740610971393397,0.9719367249328789,0.9697441781180302,0.9674858505291796,0.9651641190581434,0.9627813367772583,0.9603398271802237,0.9578418793909875,0.9552897442111354,0.9526856308935707,0.9500317134525048,0.9473300931362284,0.9445828498169928,0.9417920056658317,0.9389595330741265,0.9360873541327271,0.9331773403715308,0.9302313127225782,0.9272510416744102,0.9242382475895162,0.9211946011602652,0.9181217239818121,0.9150211892232029,0.9118945223802591,0.9087432020959191,0.9055686610355258,0.9023722868061513,0.8991554229104562,0.8959193697268011,0.8926653855084208,0.8893946873954192,0.8861084524341685,0.8828078185994476,0.8794938858152858,0.8761677169710558,0.8728303389298532,0.8694827435266458,0.8661258885540541,0.8627606987339747,0.859388066673543,0.8560088538042123,0.8526238913029315
0.9872558918231324,0.9830933517522773,0.9782595851806277,0.9727636282457681,0.9666237661679238,0.9598655165148968,0.9525198469358753,0.9446216419945733,0.9362084264630418,0.9273192407409004,0.9179938564128401,0.9082720261722993,0.8981929510690732,0.8877948595589341,0.8771146911237868,0.8661878662145065,0.8550481267718816,0.8437274339097743,0.8322559114417291,0.8206618257794815,0.8089715943332275,0.7972098159153931,0.7853993178141766,0.7735612151844413,0.7617149792255198,0.7498785113005072,0.7380682207199936,0.726299143442612,0.7145848657092999,0.7029378383834177,0.6913692980805173,0.679889382140278,0.6685072017693905,0.6572309122501827,0.646067780000003,0.6350242463542748,0.6241059880155821,0.6133179741654908,0.6026645202777995,0.5921493387038851,0.5817755861246027,0.5715459079804357,0.561462480003518,0.5515270469828528,0.5417409588983796,0.5321052045612338,0.5226204428971517,0.513287032008002,0.5041050561432376,0.4950743507089982,0.48619452543786346,0.47746498583711827,0.46888495302796496,0.4604534820825358,0.45216947895995613,0.44403171613711623,0.4360388470243299,0.4281894192507036,0.4204818868988717,0.41291462176377386,0.4054859237053895,0.3981940301608021,0.3910371248766572,0.3840133459189932,0.37712083843026173,0.37035757882930675,0.3637216560316984,0.35721109281149066,0.3508238972085248,0.3445580671983643,0.33841159494247697,0.33238247065062104,0.3264686860850991,0.3206682377344012,0.3149791296817707,0.3093993761923669,0.3039270040409767,0.2985600546006137,0.29329658571086137,0.28813467334342,0.28307241308103337,0.27810792142477164,0.27323933694354036,0.268464821278648,0.2637825600153128,0.25919076343209935,0.2546876671384534,0.25027153260973806,0.24594064762846987,0.2416933266397903,0.2375279110286105,0.23344276932529132,0.22943629734620535,0.22550691827504318,0.22165308269027265,0.21787326854374886,0.9996874023928854,0.9995056264706697,0.9992639913846384,0.9989552708595025,0.9985730748790471,0.9981118608781032,0.9975669164685855,0.9969343229828194,0.9962109073731817,0.9953941876522033,0.9944823154839769,0.9934740184039815,0.992368545248713,0.9911656045186236,0.9898653243160143,0.9884681974587083,0.986975039098619,0.9853869461571453,0.9837052602564205,0.9819315340052382,0.9800675004596937,0.9781150455568481,0.9760761833100282,0.9739530335530288,0.971747802024814,0.9694627625943782,0.9671002414358242,0.9646626029754447,0.9621522374449311,0.9595715498872913,0.956922950474305,0.9542088551394239,0.9514316418140158,0.9485936981213587,0.9456973798552676,0.9427450150473746,0.9397388998041832,0.9366812947605845,0.9335744220841152,0.9304204629706387,0.9272215555779504,0.9239797933491052,0.9206972236820579,0.9173758469065524,0.914017615533129,0.9106244337426683,0.9071981570880989,0.9037405923827977,0.9002534977528188,0.8967385828324439,0.8931975090846753,0.8896318902302064,0.8860432927701195,0.88243323658913,0.8788031956275796,0.8751545986116488,0.8714888298323912,0.8678072299652059,0.8641110969222929,0.8604016867314502,0.8566802144353219,0.8529478550058698,0.8492057442694431
0.9912622427149138,0.989129855368492,0.9867433127532456,0.9841044570192649,0.9812167445559864,0.9780849964225543,0.9747151716635741,0.971114163379643,0.9672896234160089,0.963249775675663,0.9590033130358451,0.9545592490705114,0.9499268175055919,0.9451153803732573,0.9401343494968475,0.9349931198443442,0.9297010133894708,0.9242672322298215,0.9187008198243279,0.9130106293233937,0.9072052980712595,0.9012932274598564,0.8952825674055894,0.8891812048048232,0.8829967554002905,0.8767365585594759,0.87040767452767,0.8640169051245918,0.8575707096172291,0.851075334858243,0.8445367342321685,0.8379605935976413,0.8313523368815483,0.8247171323181766,0.8180598991928126,0.8113853149691248,0.8046978226969855,0.7980016386125698,0.7913007598557491,0.7845989722412932,0.7778998580303956,0.7712068036577034,0.7645230073765661,0.757851486791726,0.7511950862543113,0.7445564840988528,0.7379381997062296,0.7313426003800546,0.7247719080270896,0.7182282056349294,0.7117134435424297,0.7052294455002778,0.6987779145207158,0.6923604385167812,0.6859784957325754,0.6796334599670131,0.6733266055942808,0.6670591123848693,0.660832070131559,0.6546464830851308,0.6485032742048968,0.6424032892293644,0.6363473005725262,0.6303360110513638,0.6243700969833088,0.6184500531535918,0.6125764341871615,0.6067496986104882,0.6009702516563795,0.5952384480968962,0.5895545949463562,0.5839189540396283,0.5783317444908027,0.5727931450371821,0.5673032962733914,0.5618623027802592,0.5564702351529739,0.5511271319328617,0.5458330014469871,0.5405878235596218,0.5353915513394791,0.5302441126464629,0.5251454116415356,0.5200953302231658,0.5150937293936783,0.5101404505586958,0.5052353167627235,0.5003781338638064,0.4955686916500638,0.49080676490078196,0.48609211439463385,0.4814244878674844,0.4768036209221241,0.4722292378921836,0.46770105266236645,0.46321876944705537,0.9999450669767179,0.9999084029243672,0.999856880997432,0.9997875884660488,0.9996976049173303,0.9995840437842904,0.9994440862325336,0.999275008306098,0.9990742023300403,0.9988391933946188,0.9985676516353712,0.9982574009318862,0.9979064251889757,0.9975128690387555,0.997075042302112,0.9965914169151489,0.9960606252120859,0.9954814564792988,0.9948528525686282,0.994173902775434,0.9934438381572958,0.9926620254431581,0.9918279606597656,0.9909412625821532,0.9900016660974286,0.9890090155558768,0.9879632581702387,0.9868644375126691,0.9857126871491266,0.9845082244426063,0.9832513445495195,0.9819424190670487,0.9805818728781915,0.9791702049406015,0.9777079659490038,0.9761957577481652,0.9746342287197853,0.9730240694083198,0.9713660083820148,0.9696608083241233,0.9679092623482638,0.966112190531109,0.9642704366549909,0.9623848651526202,0.9604563582458169,0.9584858132700113,0.956474140176202,0.9544222592020788,0.952331098704098,0.9502015931424361,0.9480346812109195,0.9458313041042382,0.9435924039149831,0.9413189221532996,0.9390117983822107,0.9366719689619379,0.9343003658968292,0.931897915778771,0.9294655388212534,0.92700414797852,0.9245146481445125,0.9219979354265817,0.9194548964891905
0.9755812942063545,0.9706523641172594,0.9653555404463374,0.9597194445556999,0.9537721901768743,0.9475410463205648,0.9410522103702946,0.9343306631199165,0.9274000962336757,0.9202828263238397,0.9129998573879898,0.9055708518218495,0.8980141752854841,0.8903469417098232,0.8825850658875635,0.874743320712633,0.8668353968786925,0.8588739634169957,0.8508707278891074,0.8428364953821248,0.834781225707175,0.8267140883943938,0.8186435152233225,0.8105772501374517,0.8025223964737372,0.7944854614986908,0.7864723982870216,0.778488671509934,0.7705391881049748,0.7626284910168948,0.7547606849771126,0.7469394930582571,0.7391682845806683,0.7314501010959145,0.7237876805647104,0.7161834798430852,0.7086396955862904,0.7011582836750405,0.6937409772634481,0.6863893035426447,0.6791045993086743,0.671888025417909,0.6647405802080165,0.657663111957487,0.6506563304518995,0.6437208177205083,0.6368570380023785,0.6300653469971911,0.6233460004519604,0.6166991621312976,0.6101249112154326,0.6036232491670657,0.5971941061051379,0.5908373467208705,0.5845527757688561,0.5783401431636084,0.5721991487097621,0.56612944649207,0.5601306489494364,0.5542023306554689,0.5483440318263924,0.542555261575657,0.5368355009331722,0.5311842056457969,0.5256008456904213,0.5200847595727652,0.5146353793966313,0.5092520839240346,0.5039342378579853,0.4986811936183333,0.4934922929861788,0.488366868626013,0.48330424549410567,0.47830374214105636,0.4733646719158625,0.4684863440783379,0.4636680648262474,0.45890913824305707,0.4542088671718097,0.4495665540202321,0.4449815015018389,0.4404530133174595,0.4359803947813134,0.431562953395472,0.4271999993762792,0.4228908461360647,0.4186348107232463,0.41443121422371304,0.41027938212618115,0.4061786446540301,0.4021283370659587,0.3981277999276424,0.3941763793564203,0.39027342724091213,0.3864183014373284,0.38261036594412495,0.9993736518433628,0.9990626207254879,0.9986707614780022,0.9981932567199493,0.9976264766144192,0.9969678142891385,0.9962155383679563,0.9953686622874371,0.9944268301937623,0.9933902180655367,0.9922594484122941,0.9910355168772041,0.989719731441499,0.9883136493872186,0.986819043985238,0.9852378560557006,0.9835721619205978,0.9818241441229146,0.9799960663403264,0.9780902519079527,0.9761090654491453,0.9740548971853342,0.9719301495573129,0.9697372258425406,0.9674785204974886,0.965156410991884,0.9627732509340043,0.9603313643137077,0.9578330407134698,0.955280531357871,0.9526760458893139,0.9500217586811961,0.9473197713076561,0.944572163942633,0.9417809590314792,0.9389481292153911,0.936075596812082,0.9331652335568293,0.93021886056696,0.9272382484975207,0.9242251178599641,0.9211811394792472,0.9181079350678406,0.9150070778978637,0.9118800935549448,0.9087284607594778,0.9055536122427665,0.902356935667158,0.899139774580657,0.8959034293977479,0.892649158399236,0.8893781787448641,0.8860916674932984,0.882790762624813,0.8794765640626496,0.8761501346895872,0.8728125013567747,0.8694646558822985,0.8661075560373597,0.8627421265182628,0.8593692599027263,0.8559898175892808,0.8526046307187514
0.9755972402399793,0.9706700752736747,0.9653749444839208,0.959740460915109,0.9537947327748683,0.9475650257417029,0.941077535579544,0.934357242793887,0.9274278397861819,0.9203116446968602,0.9130296636378523,0.9056015615592551,0.8980457069907141,0.8903792169501845,0.8826180094571623,0.8747768607106373,0.866869464739098,0.858908493900384,0.8509056590448646,0.8428717684879522,0.8348167851914093,0.8267498817455816,0.8186794928906345,0.8106133654248153,0.8025586054299987,0.7945217228056493,0.786508673146799,0.7785249235329724,0.770575383199004,0.7626645972784614,0.7547966725855454,0.7469753341726693,0.7392039532402682,0.7314855731238195,0.7238229334753856,0.7162184927534763,0.7086744491306677,0.7011927599235369,0.6937751596442444,0.6864231767677353,0.6791381493031258,0.6719212392525112,0.6647734460352211,0.6576956189505185,0.6506884687469164,0.6437525783616976,0.636888412889861,0.6300963288376132,0.6233765827116577,0.6167293389919077,0.6101546775318479,0.6036526004276084,0.597223038393854,0.5908658566818374,0.5845808605724019,0.5783678004743481,0.5722263766563569,0.5661562436386237,0.5601570142684409,0.5542282635022212,0.5483695319148049,0.5425803289553882,0.5368601359680079,0.5312084089932155,0.5256246182851446,0.5201081025999129,0.5146582942830784,0.5092745723192489,0.5039563016186357,0.49870283479375077,0.4935135138046236,0.48838767148170603,0.48332463293498307,0.4783237168572072,0.4733842367286135,0.46850550192995155,0.4636868187701988,0.45892749143485984,0.45422682286035954,0.44958411553964245,0.4449986722637412,0.44046979680374226,0.43599679453727863,0.43157897302338394,0.427215642529287,0.42290611651247684,0.41864971206113866,0.4144457502958532,0.4102935567352515,0.40619246162813316,0.40214180025439095,0.39814091319692047,0.3941891465865477,0.39028585232187235,0.3864303882657923,0.3826221184203624,0.9993741828167894,0.9990633668620049,0.9986717598136748,0.9981945422451354,0.9976280818640971,0.9969697691085864,0.9962178698043807,0.9953713945716237,0.9944299847849518,0.9933938137397357,0.9922635013794446,0.9910400409165111,0.9897247380462881,0.988319147917685,0.9868250418169601,0.9852443587290308,0.9835791732849364,0.9818316664753033,0.9800041005574964,0.9780987975713229,0.9761181209625258,0.9740644598852956,0.9719402158163005,0.9697477911649356,0.9674895796088577,0.9651679579217299,0.9627852790923321,0.960343866561752,0.9578460094289245,0.955293958494966,0.9526899230340649,0.9500360771007059,0.947334522001065,0.9445873376793684,0.9417965463917863,0.9389641206260317,0.9360919825789257,0.9331820038945716,0.9302360056261841,0.927255758389304,0.9242429826782208,0.9211993493209788,0.9181264800514581,0.9150259481797351,0.9118992793443059,0.908747952331834,0.9055733999519111,0.9023770099559136,0.8991601259904448,0.8959240485770796,0.8926700361112171,0.8893993058737869,0.8861130350504047,0.8828123617532917,0.8794983860419323,0.8761721709390062,0.8728347434386331,0.8694870955044038,0.8661301850550678,0.8627649369360761,0.859392243875483,0.8560129674229736,0.8526279388710084
0.985163715924954,0.9810065042434778,0.97631997523562,0.9711250763048926,0.96544697181996,0.9593136925479339,0.9527550534149011,0.9458017990341978,0.9384849511753687,0.9308352498940371,0.9228828430916676,0.9146569562271487,0.9061857029032812,0.897495947633864,0.8886132189649933,0.8795616618572899,0.8703640203906081,0.8610416436194923,0.851614508847791,0.8421012577596557,0.83251924178964,0.82288457387737,0.813212184366206,0.8035158792984709,0.7938083997551459,0.7841014812041815,0.7744059120739759,0.7647316231004034,0.7550876141238195,0.7454822005514578,0.7359229356266005,0.7264166913331127,0.7169697046275416,0.7075876212025171,0.6982755368034387,0.6890380361469759,0.6798792295093846,0.6708027870665325,0.6618119710770088,0.6529096660056983,0.6440984066885013,0.6353804046400753,0.6267575726060733,0.6182315474597199,0.6098037115400402,0.6014752125258822,0.5932469819362206,0.5851197523433079,0.5770940733811174,0.5691703266273302,0.5613487394329141,0.5536293977691931,0.5460122581582418,0.5384971587484942,0.531083829593665,0.5237719021894411,0.5165609183189278,0.5094503382545366,0.5024395483608801,0.4955278681402853,0.4887145567597558,0.48199881909559794,0.4753798113294698,0.4688566461273111,0.4624284398772234,0.4560941467112221,0.4498528191531682,0.44370344023722874,0.437644970077303,0.43167634909241825,0.4257965009821357,0.42000433546966925,0.41429875082920153,0.4086786362127111,0.40314287379056946,0.39769034071915565,0.39231991094782087,0.3870304568766613,0.3818208508757644,0.376689966675842,0.3716366806394742,0.36665987292153807,0.3617584285268018,0.3569312382721013,0.3521771996600026,0.3474952176703698,0.3428842054758083,0.33834308508654126,0.3338707879298849,0.3294662553691284,0.32512843916629586,0.32085630189294545,0.316648817292879,0.31250497060036414,0.30842375881721534,0.30440419095185584,0.999731107073751,0.9995674492054458,0.9993478702622316,0.9990656046047955,0.9987147949257886,0.9982904819834998,0.9977885644084812,0.9972057408394032,0.9965394433120797,0.9957877675944843,0.9949494040760952,0.994023571416684,0.993009955980998,0.991908647301024,0.990720095459976,0.989445056669886,0.9880845517877591,0.9866398276811345,0.9851123227388321,0.9835036361899124,0.9818155008924828,0.9800497592643317,0.9782083420446996,0.9762932495976419,0.9743065354902589,0.9722502921022088,0.9701266380454739,0.9679377071948245,0.9656856391494855,0.963372570965035,0.961000630011516,0.9585719359990005,0.9560885632150949,0.9535525845214137,0.9509660354320216,0.9483309189158377,0.9456492027513934,0.9429228173546172,0.9401536540228829,0.9373435635449169,0.9344943551318224,0.9316077956295009,0.9286856089772255,0.9257294758811027,0.9227410336746813,0.9197218763421163,0.9166735546820848,0.9135975765931239,0.9104954074632818,0.9073684706489147,0.9042181480292203,0.9010457806246381,0.8978526692686316,0.8946400753235904,0.8914092214326775,0.8881612923004244,0.8848974354957321,0.8816187622717055,0.8783263483974348,0.8750212349974387,0.8717044293950295,0.8683769059563377,0.86503960693216
0.9755809813710251,0.9706520367249618,0.9653552106819755,0.9597191254024424,0.9537718950504567,0.9475407887689397,0.9410520038318878,0.9343305207329328,0.9274000306888452,0.9202828497543372,0.9129999812890167,0.9055710869957226,0.8980145318069587,0.8903474289078305,0.8825856923400394,0.8747440942516719,0.866836324603732,0.8588750517141431,0.8508719824550539,0.8428379212513845,0.8347828272816197,0.8267158694742567,0.8186454790390025,0.8105793993815945,0.8025247333331736,0.7944879876859099,0.7864751150709279,0.7784915797450658,0.7705422882622334,0.7626317832093172,0.754764168986992,0.7469431683623923,0.7391721503743649,0.7314541563157355,0.723791923909993,0.716187909796245,0.7086443104319491,0.7011630815180098,0.693745956045615,0.6863944610587999,0.6791099332213328,0.671893533271166,0.6647462594404866,0.6576689599143771,0.6506623443962555,0.6437269948436845,0.6368633754337718,0.630071841813282,0.623352649684702,0.6167059627758896,0.6101318602375205,0.6036303435093967,0.5972013426937105,0.5908447224706068,0.5845602875888302,0.5783477879618555,0.5722069233976993,0.5661373479885513,0.5601386741844672,0.554210476573603,0.5483522953898309,0.5425636397670719,0.5368439907582703,0.5311928041356442,0.5256095499028504,0.5200935665963661,0.5146442863503302,0.5092610879593251,0.5039433361602776,0.498690383408149,0.49350157152020135,0.48837623319800316,0.48331369343569386,0.47831327082241953,0.4733742787462936,0.46849602650671923,0.4636778203414294,0.4589189643741568,0.45421876148842866,0.44957651413260397,0.4449915250609114,0.4404630980149154,0.43599053834953583,0.43157315360745846,0.4272102540455102,0.4229011531163276,0.41864516790842154,0.41444161954752484,0.41028983356191495,0.4061891402142211,0.4021388748020547,0.39813837792964124,0.39418699575248695,0.3902840801969762,0.38642898915666407,0.38262108666691685,0.9993738278009471,0.9990628644707787,0.9986710829363816,0.9981936647204619,0.9976269788357487,0.9969684172651835,0.9962162475315419,0.9953694820372907,0.9944277639743584,0.9933912684527217,0.9922606171999329,0.991036805161747,0.9897211397023277,0.9883151775626381,0.9868206915415363,0.9852396220510664,0.9835740450629499,0.9818261428220433,0.9799981787546553,0.9780924759862811,0.9761113989677541,0.9740573377808482,0.9719326947557024,0.9697398730846293,0.9674812671613096,0.9651592544122121,0.9627761884193541,0.9603343931610722,0.9578361582210433,0.9552837348359866,0.9526793326697862,0.9500251261249983,0.9473232168124144,0.9445756849474157,0.9417845530216986,0.9389517937265837,0.936079329432941,0.9331690319315834,0.9302227223971801,0.9272421715434285,0.9242290999413076,0.9211851784757988,0.9181120289195716,0.9150112246048383,0.9118842911769764,0.9087327074155782,0.905557906110424,0.9023612749814698,0.8991441576333397,0.8959078545360485,0.8926536240247617,0.889382683312347,0.8860962095093099,0.8827953406464408,0.8794811766961461,0.8761547805890035,0.8728171792225822,0.8694693644600108,0.866112294116157,0.8627468929296263,0.8593740535190877,0.8559946373226871,0.8526094755195508
0.9996438202935547,0.9993952609129445,0.9990294728911124,0.9985144013043803,0.9978156433112122,0.9968973819692105,0.9957233457348271,0.9942577429276951,0.9924661340698091,0.9903161933169243,0.9877783851795199,0.9848264863657824,0.981437992656036,0.9775943970267852,0.9732813493123611,0.9684887082873801,0.9632104991393154,0.9574447903685848,0.9511935044018816,0.9444621758236146,0.9372596702931384,0.929597876071609,0.921491378756177,0.912957128410292,0.9040141068635194,0.894683001588514,0.8849858912854695,0.8749459810764487,0.8645871876402728,0.853934080172848,0.8430115102210806,0.8318444293392225,0.8204576964331448,0.8088759072544413,0.7971232453323019,0.785223353374414,0.7731992239817955,0.7610731083958701,0.7488664419192895,0.7365997846161887,0.7242927758947406,0.7119641015981663,0.6996314722737363,0.6873116113476909,0.6750202520030746,0.6627721416336866,0.6505810528277239,0.638459799916913,0.6264202602090507,0.614473399102519,0.6026292983592986,0.5908971868875535,0.5792854734553641,0.5678017808232937,0.5564529808449981,0.5452452301419127,0.5341840060102238,0.5232741422659516,0.512519864777174,0.5019248264714482,0.49149214164151683,0.4812244194037113,0.4711237961913207,0.4611919671898352,0.4514302810094212,0.44183951020224516,0.43242026878515627,0.423172778028069,0.4140969573738767,0.4051924486097172,0.3964586388012979,0.3878946820079311,0.3794995198021229,0.37127190062259774,0.36321039799370175,0.3553134276473045,0.34757926358575036,0.3400060531261566,0.3325918309675577,0.32533453232308474,0.3182320051596522,0.31128202158754054,0.3044822884418998,0.2978304570975608,0.29132413255772127,0.28496088185607577,0.27873824181082824,0.27265372616780076,0.2667048321685388,0.260889046577952,0.2552038512046318,0.24964672794556503,0.24421516338553415,0.2389066529800791,0.23371870484948173,0.22864884320985807,0.9999624087618527,0.999940066981631,0.9999101553050308,0.9998716805249943,0.9998237311501819,0.9997654781251948,0.9996961727856799,0.9996151430414121,0.9995217885493515,0.9994155753633951,0.9992960303809525,0.9991627357962692,0.9990153239539773,0.9988534711716486,0.9986768943198112,0.99848534528914,0.998278606975455,0.9980564893629137,0.9978188259345482,0.997565470400807,0.9972962937332532,0.9970111814883144,0.9967100314046105,0.9963927512566687,0.9960592569476147,0.995709470823545,0.9953433201926881,0.9949607360330123,0.9945616518726564,0.9941460028283303,0.9937137247876721,0.9932647552435047,0.9927990266969569,0.9923164751554652,0.9918170338506661,0.9913006344256867,0.9907672067345443,0.9902166787108029,0.9896489762978192,0.9890640234335714,0.9884617420836346,0.9878420523164376,0.987204872415426,0.9865501190232432,0.9858777073134628,0.9851875511858115,0.9844795634811887,0.9837536562131161,0.9830097408125706,0.9822477283834331,0.9814675299660331,0.9806690568065295,0.9798522206300597,0.9790169339158119,0.9781631101723373,0.977290664211606,0.976399512420451,0.9754895730281917,0.974560766369361,0.9736130151405745,0.9726462446506973,0.9716603830635598,0.9706553616325745
0.9874215355614495,0.983440115058275,0.9788255306389564,0.9735813566043846,0.9677194351476651,0.9612583612159251,0.9542220975833616,0.9466387405429509,0.9385394552275591,0.9299574937437727,0.9209274905761099,0.9114847529576906,0.9016647324758637,0.8915025848229694,0.8810328174186887,0.8702890125433063,0.8593036147663964,0.8481077726611134,0.8367312259833024,0.8252022306211358,0.813547514659698,0.8017922598444805,0.7899601035654135,0.7780731572216738,0.7661520374730806,0.7542159074440872,0.7422825254295896,0.7303683386438793,0.7184883827286465,0.7066565799454206,0.694885642182336,0.683187172628069,0.6715717274208529,0.6600488763644514,0.6486272622633263,0.6373146585352318,0.6261180248473409,0.6150435605945305,0.6040967560979784,0.5932824414508014,0.5826048329768322,0.5720675773002548,0.5616737930489727,0.5514261102343335,0.541326707365088,0.5313773463649741,0.5215794053717713,0.5119339095015685,0.5024415596658269,0.4931027595309759,0.4839176407110563,0.4748860862836415,0.46600775271809686,0.4572820903034073,0.44870836216045495,0.44028566192089846,0.43201293015178566,0.42388896960183914,0.4159124593420219,0.4080819678696193,0.40039596524167154,0.392852834300221,0.3854508810485211,0.37818834423411224,0.37106345113269756,0.36407423703891817,0.3572188371240199,0.3504953028642997,0.34390165624103863,0.337435895570269,0.3310960008489919,0.32487993865185144,0.3187856666101026,0.31281113750264067,0.3069543029869247,0.30121311699578873,0.2955855388244178,0.29006953593013884,0.2846630864661615,0.2793641815689701,0.27417082741773297,0.2690810470828368,0.26409288217948856,0.2592043943412125,0.2544136665270583,0.24971880417536702,0.24511793621604283,0.24060921595244622,0.2361908218232359,0.2318609580537596,0.22761785520591105,0.22345977063473765,0.21938498885948463,0.21539182185621839,0.2114786092786473,0.2076437186132892,0.9999222077895608,0.9998713122144692,0.9998003076058581,0.9997054349731279,0.9995829812783656,0.9994293375652873,0.9992410445797608,0.9990148272046944,0.9987476193763611,0.9984365810007566,0.998079108248352,0.9976728384475374,0.9972156514405298,0.996705663575977,0.99614122671727,0.9955209177159086,0.9948435300615266,0.994108063758263,0.9933137145009723,0.9924598624388199,0.9915460607562165,0.9905720242529954,0.9895376180658476,0.9884428466401293,0.9872878430341169,0.9860728586157325,0.9847982531938275,0.9834644856116589,0.9820721048185816,0.9806217414267836,0.9791140997526138,0.9775499556318034,0.9759301284096157,0.9742555056012826,0.9725270161483998,0.9707456298292673,0.9689123519624281,0.9670282184927996,0.9650942914407417,0.9631116546944283,0.9610814101261356,0.9590046740134656,0.9568825737470765,0.954716244807116,0.9525068279912622,0.9502554668780141,0.9479633055096474,0.9456314862800259,0.9432611480132397,0.9408534242198097,0.9384094415179534,0.9359303182081333,0.9334171629898256,0.9308710738101167,0.928293136834394,0.9256844255300132,0.9230459998544175,0.9203789055397436,0.9176841734664714,0.9149628191191905,0.9122158421180074,0.909444225819578,0.9066489369821532
0.9755977633353706,0.9706704461869177,0.9653751179893506,0.9597403930094168,0.9537943811151293,0.9475643499729431,0.9410764975716557,0.9343558068041005,0.9274259725613286,0.9203093155230758,0.9130268443544867,0.9055982265378809,0.8980418330894894,0.8903747834485257,0.8826129979754439,0.8747712551188295,0.8668632510575804,0.8589016601955902,0.8508981953219235,0.8428636665820803,0.834808038659463,0.8267404857588803,0.8186694441299345,0.8106026619780999,0.8025472466935899,0.7945097093890093,0.7864960067812714,0.7785116069867818,0.7705614201878014,0.7626499923930626,0.754781431215193,0.7469594624345939,0.7391874579132865,0.7314684615858588,0.7238052136448068,0.7162001730340504,0.70865553836006,0.7011732673251452,0.6937550947822316,0.6864025495051023,0.6791169697626684,0.6718995177805103,0.6647511931677119,0.6576728453819995,0.6506651853013559,0.6437287959657013,0.6368641425478743,0.630071581609033,0.6233513696897368,0.616703671284338,0.6101285662429184,0.6036260566418356,0.597196073160989,0.5908384810031596,0.5845530853882155,0.5783396366525995,0.5721978349822978,0.566127334805449,0.5601277488688349,0.5541986520207477,0.5483395847210839,0.5425500562980037,0.5368295479690927,0.5311775156436691,0.5255934294423648,0.5200766279782763,0.5146265434567127,0.5092425547173441,0.5039240265231834,0.4986703113376793,0.49348075097030225,0.48835467809978483,0.483291417683546,0.47829028826121206,0.4733506031595948,0.4684716716059667,0.46365279975599494,0.45889329164224507,0.4541924500487597,0.4495495773168274,0.44496397608670535,0.4404349499797259,0.4359618042249158,0.4315438462339661,0.4271803861281291,0.422870737220378,0.41861421645592567,0.41441014481399785,0.4102578476735536,0.40615665514546256,0.40210590237347954,0.3981049298061984,0.3941530834420173,0.39024971504901473,0.38639418236149997,0.38258584925489414,0.9993746771547196,0.9990640564357098,0.9986726774341665,0.9981957189998518,0.9976295467290412,0.9969715486879713,0.9962199881670696,0.9953738731623106,0.9944328423931311,0.9933970665132833,0.9922671628724301,0.9910441221629746,0.9897292476526357,0.98832409217196,0.9868304248035494,0.9852501824524821,0.9835854377965713,0.9818383700011296,0.9800112396256739,0.9781063671378152,0.9761261145338843,0.9740728696377691,0.9719490327106849,0.9697570050567309,0.9674991793534591,0.9651779314744722,0.9627956136033106,0.9603545484654087,0.957857024528449,0.9553052920416003,0.9527015598014411,0.9500480014534378,0.9473467179624704,0.9445997889889886,0.941809236562522,0.938977032996224,0.9361051003605704,0.9331953102178632,0.9302494835805867,0.9272693910613443,0.9242567531861856,0.9212132408467065,0.9181404758693925,0.9150400316834154,0.9119134340704502,0.9087621619821742,0.905587648412921,0.9023912813165741,0.8991744045581751,0.8959383188919615,0.8926842829586288,0.8894135142955581,0.8861271903545989,0.8828264495227125,0.8795123921414504,0.8761860815217898,0.872848544951366,0.8695007746915696,0.8661437289623677,0.8627783329130521,0.8594054795774081,0.8560260308120666,0.8526408182170307
0.9755877386430254,0.9706595127162622,0.9653633609047328,0.9597279005540758,0.9537812425545721,0.9475506540295349,0.941062331247746,0.9343412545121496,0.9274111154967231,0.9202942312258274,0.9130116064237713,0.9055829044615976,0.8980264921655479,0.8903594847765348,0.8825977985022319,0.8747562077245951,0.8668484046721412,0.8588870599363596,0.850883882646964,0.8428496794529791,0.8347944117098846,0.826727250465558,0.8186566289835743,0.8105902926522673,0.8025353462101051,0.7944982982787568,0.786485103239633,0.7785012270213729,0.7705515777669344,0.7626406995772477,0.7547726982889679,0.7469512980300471,0.7391798691270624,0.7314614540897774,0.7237987917902678,0.716194339950422,0.7086502960472769,0.7011686167407475,0.6937510359230943,0.6863990814840996,0.679114090880526,0.6718972255930851,0.6647494845489486,0.6576717165827927,0.6506646320045504,0.6437288133374482,0.6368647252855542,0.6300727239859498,0.6233530655967722,0.6167059142687539,0.6101313495444768,0.6036293732264061,0.5971999157517962,0.5908428421098205,0.5845579573337057,0.5783450115982789,0.5722037049511215,0.5661336917034772,0.5601345845051544,0.5542059581259067,0.548347352964136,0.5425582783022527,0.5368382153266253,0.5311866199287515,0.5256029622209597,0.5200865808279158,0.5146369079683469,0.5092533225077864,0.5039351892438728,0.4986818606826957,0.49349267868368185,0.48836697598218487,0.4833040775983032,0.47830330213983596,0.47336396300673467,0.46848536950388914,0.46366682786860486,0.4589076422186834,0.4542071154266071,0.44956454992494066,0.44497924844771397,0.4404505147122131,0.43597765404530514,0.43155997395813694,0.42719678467278027,0.42288739960415633,0.4186311358003397,0.41442731434413116,0.4102752607185933,0.406174305139057,0.4021237828539382,0.3981230344165474,0.3941714059299211,0.3902682492665743,0.3864129222649392,0.3826047889041421,0.999373774587701,0.9990628021582004,0.9986710159637967,0.9981935991725563,0.997626922224685,0.9969683782905795,0.9962162358384492,0.9953695079846894,0.9944278384214381,0.9933914025666581,0.9922608222865321,0.9910370925188313,0.9897215204946603,0.9883156627176295,0.9868212916623399,0.9852403473466922,0.9835749052927598,0.9818271472529756,0.9799993361295058,0.9780937945015092,0.9761128862594352,0.9740590009175392,0.9719345402371272,0.969741906845225,0.967483494577792,0.9651616803144294,0.9627788171037919,0.9603372284064656,0.9578392033056273,0.9552869925559755,0.952682805358746,0.9500288156730946,0.9473271246889037,0.9445798122189556,0.9417889003735124,0.9389563614827394,0.9360841175763462,0.9331740401235985,0.9302279499967765,0.9272476176258294,0.9242347633160658,0.9211910577042769,0.9181181223317986,0.9150175303157287,0.9118908071019001,0.9087394312852786,0.9055648354852882,0.9023684072651534,0.899151490085756,0.8959153842857369,0.8926613480806453,0.8893905985748984,0.8861043127811391,0.8828036286423282,0.879489646052533,0.8761634278729649,0.8728260009402989,0.8694783570647604,0.8661214540158425,0.8627562164938661,0.8593835370858787,0.8560042772046668,0.8526192680098728
0.9987129698410128,0.9979326373397461,0.9968439049764819,0.9953839434229071,0.9934910942742079,0.9911071778564324,0.9881794961712271,0.9846624396694224,0.980518661576448,0.9757197734493747,0.9702466963728826,0.9640895798954007,0.9572474509591923,0.949727619728597,0.9415449134255737,0.9327207976992163,0.923282437516699,0.9132617409490105,0.9026944204486984,0.8916190978977497,0.8800764722201909,0.8681085618997084,0.8557580293781026,0.8430675900061345,0.8300795048890066,0.8168351544988395,0.803374688188593,0.7897367892220194,0.7759582754033166,0.7620742104354097,0.7481176113904704,0.7341194250400048,0.7201084955830673,0.7061115630265694,0.6921532869045547,0.678256290563736,0.664441221782347,0.6507268260121443,0.6371300290279018,0.6236660262278798,0.6103483762485089,0.5971890969352375,0.5841987620492626,0.5713865973880045,0.5587605752578063,0.5463275064631357,0.5340931291704494,0.5220621941699165,0.5102385461974215,0.4986252010956278,0.48722441868912164,0.47603777132740727,0.4650662081130917,0.4543101148831511,0.4437693700506299,0.4334433964441661,0.4233312093048842,0.41343146061575714,0.40374247994863677,0.3942623120198118,0.3849887511469678,0.3759193727995681,0.3670515624315287,0.3583825417801526,0.34990944852717726,0.34162913391131305,0.33353852060994466,0.32563439387375326,0.31791347468127024,0.31037243429693,0.30300790737239575,0.29581650371146884,0.2887948188107631,0.2819394432804602,0.2752469712419476,0.26871400779196597,0.2623371756161158,0.2561131208281455,0.25003851810543803,0.24411007518545447,0.23832453678262805,0.23267868798028365,0.22716935714759798,0.2217934184273748,0.2165477938364913,0.21142945501725466,0.20643542467455744,0.2015627777306505,0.19680864222651712,0.1921701999962313,0.18764468713829852,0.18322939430578508,0.1789216668350414,0.17471890473099239,0.17061856252528582,0.166618149022068,0.9999101180814876,0.9998547151273005,0.9997791672879154,0.9996801212370909,0.9995542357315559,0.9993982030046424,0.9992087686652132,0.998982750223733,0.9987170543068022,0.9984086924066333,0.9980547949928076,0.9976526238552114,0.9971995834048769,0.9966932262306141,0.9961312644590169,0.9955115719477983,0.9948321884939046,0.9940913218384311,0.9932873483159962,0.9924188122898255,0.9914844245130878,0.9904830595528885,0.9894137524067985,0.9882756944337385,0.987068228712069,0.9857908449283107,0.9844431738904416,0.983024981750384,0.9815361640113185,0.9799767393869511,0.9783468435718767,0.9766467287457578,0.9748767344621063,0.973037315364824,0.9711290126694111,0.9691524536753813,0.9671083458715899,0.9649974711916797,0.9628206804352629,0.9605788878672142,0.9582730660046082,0.9559042405983208,0.9534734858141244,0.950981919616205,0.9484306993543786,0.9458210175548617,0.9431540979132546,0.940431191487346,0.937653573086509,0.9348225378537245,0.93193939803568,0.92900547993593,0.9260221210457047,0.9229906673466879,0.9199124707798552,0.9167888868743245,0.9136212725300769,0.910410983948372,0.9071593747036739,0.9038677939509482,0.9005375847622579,0.8971700825866799,0.8937666138276711
0.9925305351383986,0.9899966334585294,0.9870176103464184,0.9835892472554433,0.9797134793467689,0.9753973777158074,0.970652202810646,0.9654925509602377,0.9599356116022061,0.9540004779687719,0.9477076461272992,0.9410785093875228,0.9341349760234591,0.9268991468035199,0.9193930522578602,0.9116384413440138,0.9036566139617722,0.8954682906021922,0.8870935132346154,0.8785515723060356,0.8698609554319195,0.861039313989828,0.8521034443864529,0.8430692812581742,0.8339519002902358,0.8247655287062515,0.8155235617944198,0.8062386150455487,0.7969224252134137,0.7875860629926276,0.7782398387360326,0.7688933636006468,0.7595555805374856,0.7502347955202849,0.7409387086740015,0.7316744450331509,0.7224485847177982,0.7132671923630884,0.7041358456781336,0.6950596630430604,0.6860433300802522,0.6770911251581045,0.6682069438038326,0.6593943220166089,0.6506564584841791,0.6419962357155489,0.6334162401097664,0.6249187809865862,0.6165059086091541,0.6081794312320792,0.5999409312105001,0.5917917802072575,0.5837331535361165,0.5757660436793153,0.5678912730176354,0.5601095058107669,0.5524212594650646,0.5448269151249122,0.5373267276228698,0.5299208348226395,0.5226092663876452,0.5153919520067451,0.5082687291072794,0.501239350084327,0.4943035349004873,0.48746079350387733,0.4807107085838488,0.4740527559604535,0.46748635622974444,0.4610108796238649,0.4546256505536689,0.4483299518529074,0.4421230287419818,0.43600409252823946,0.42997232405884883,0.42402687694135566,0.4181668805461702,0.41239144280439594,0.40669965281363785,0.4010905832636771,0.39556329269320595,0.3901168275881422,0.3847502243314274,0.37946251101360834,0.37425270911295133,0.36911983505330953,0.3640629016474628,0.3590809194331884,0.35417289790887413,0.3493378466750746,0.3445747764880192,0.33988270023071404,0.3352606338069327,0.33070759696307106,0.326222614042527,0.32180471467699134,0.9999932243664739,0.9999861995083995,0.9999744976665782,0.9999563380297919,0.9999296948151849,0.9998923393191794,0.9998418843062601,0.99977582795086,0.9996915955072948,0.9995865775740682,0.9994581643356912,0.9993037755332056,0.999120886496205,0.99890704848367,0.9986599082794275,0.9983772213047166,0.9980568630275145,0.9976968373006135,0.9972952822532875,0.9968504740620862,0.9963608289017772,0.9958249033505459,0.9952413934960576,0.9946091329620447,0.9939270900494526,0.9931943641622843,0.9924101816663594,0.9915738913092987,0.9906849593121864,0.9897429642274016,0.9887475916430076,0.9876986323797232,0.986595962947647,0.985439561088007,0.984229486664386,0.9829658798201811,0.9816489558525305,0.9802790002228181,0.9788563637196889,0.9773814577866132,0.9758547500227169,0.9742767598627874,0.9726480544400107,0.9709692446330019,0.9692409812970583,0.9674639516781898,0.9656388760073816,0.9637665042716318,0.9618476131575948,0.9598830031630968,0.9578734958713537,0.9558199313824126,0.9537231658961026,0.9515840694406539,0.9494035237410489,0.9471824202211678,0.9449216581338058,0.9426221428127084,0.9402847840408687,0.9379104945294479,0.9355001885018231,0.9330547803774233,0.9305751835501787
0.9943707811037933,0.9922738704047944,0.9897523752687774,0.9867918437231676,0.9833845084861474,0.9795285318574443,0.9752272153807415,0.9704882219706182,0.9653228491308589,0.9597453172770659,0.9537722120334141,0.9474219109557298,0.9407141204345708,0.9336694689108747,0.9263091596391764,0.918654677389578,0.9107275433268447,0.9025491124404249,0.8941404082089969,0.8855219895895386,0.8767138458715222,0.8677353153973161,0.8586050245984803,0.8493408442211953,0.8399598600054081,0.8304783554381567,0.8209118045213074,0.8112749049321956,0.8015814572976798,0.7918445707119642,0.7820765521455081,0.7722889591887846,0.7624926234186928,0.7526976756605294,0.7429135725838781,0.73314912416403,0.7234125216204709,0.7137113655123599,0.7040526937292448,0.6944430091649231,0.684888306904501,0.6753941007904061,0.6659654492632322,0.6566069803986618,0.647322916082974,0.638117095287407,0.6289929964164056,0.6199537587170025,0.6110022027465919,0.6021408499045571,0.59337194103979,0.5846974541514343,0.5761191212043218,0.5676384440837678,0.5592567097167973,0.5509750043886085,0.5427942272842504,0.5347151032862195,0.5267381950589988,0.5188639144515983,0.5110925332489166,0.5034241933023004,0.4958589160690859,0.48839661159017145,0.4810371355477314,0.47378010206643145,0.46662518489872645,0.45957192792506846,0.45261980102296184,0.4457682062323331,0.4390164835362693,0.43236391627844745,0.42580973623759544,0.4193531283783407,0.4129932352968668,0.4067291613788729,0.4005599766864443,0.39448472058958095,0.3885024051573125,0.3826120183225257,0.37681252683388294,0.3711028790074706,0.3654820072901398,0.35994883064582495,0.3545022567755068,0.3491411841808862,0.3438645040812639,0.3386711021925823,0.3335598603770803,0.3285296581715138,0.323579374201451,0.318707887488704,0.31391407865855425,0.3091968310530407,0.30455503175620563,0.2999875725368574,0.9999934384954912,0.9999876122785627,0.9999784050175475,0.999964647689159,0.9999449935911524,0.9999179287088564,0.9998817857723701,0.9998347611824281,0.9997749339988392,0.9997002862136468,0.9996087236078738,0.999498096590513,0.9993662207646935,0.9992108954456537,0.999029923214049,0.9988211259321235,0.998582360281139,0.9983115315133716,0.998006605602045,0.9976656198101925,0.997286691728773,0.9968680268558315,0.9964079248033927,0.9959047842283562,0.9953571065889524,0.9947634988302768,0.9941226751017872,0.9934334576070925,0.9926947766823955,0.9919056701950126,0.9910652823478118,0.9901728650249073,0.9892277635959297,0.988229432198926,0.9871774192096118,0.986071367033618,0.9849110088127614,0.9836961649717637,0.9824267396457207,0.9811027170240703,0.9797241576426169,0.9782911946513151,0.976804030081973,0.9752629311368369,0.9736682265160888,0.9720203027996643,0.9703196008964174,0.9685666125715398,0.9667618770612318,0.9649059777819334,0.962999539139918,0.9610432234457148,0.9590377279366618,0.9569837819098549,0.95488214396686,0.9527335993707732,0.9505389575155311,0.9482990495067989,0.9460147258532515,0.9436868542666551,0.9413163175687829,0.9389040117029199,0.9364508438474541
0.9974218244626362,0.9963242553133567,0.9949542132067567,0.9932900680249179,0.9913143679550486,0.9890137830082202,0.9863789208826985,0.9834040583135069,0.9800868272634274,0.9764278470160558,0.9724304048681123,0.9681000882006437,0.963444458169486,0.9584727387814346,0.953195529928724,0.9476245459795076,0.941772380275595,0.9356522950223903,0.9292780354764982,0.922663666970608,0.9158234331062289,0.9087716333490305,0.9015225182458176,0.8940902005216168,0.8864885803913575,0.8787312835194969,0.8708316101726549,0.8628025211335956,0.8546564980903592,0.8464056791024155,0.8380617338766978,0.8296358776246614,0.8211388632758749,0.8125809778390435,0.803972042285957,0.7953214144074069,0.7866379941565184,0.777930231054646,0.7692061332884359,0.7604732781743604,0.7517388237094816,0.743009520964856,0.7342917271113363,0.7255914188969683,0.7169142064211238,0.7082653470733365,0.6996497595248288,0.6910720376782654,0.682536464496608,0.6740470256453269,0.6656074228938692,0.6572210872324116,0.6488911916686949,0.6406206636773107,0.6324121972803561,0.6242682647439788,0.6161911278801513,0.6081828489471095,0.6002453011453738,0.5923801787092171,0.5845890065959156,0.5768731497771696,0.5692338221387963,0.5616720949961805,0.5541889547487786,0.5467851120648446,0.5394613079737947,0.5322181212984566,0.5250560254334241,0.5179753947606678,0.5109765107538111,0.5040595677825798,0.4972246786289149,0.4904718797261326,0.4838011361323782,0.4772123462494217,0.47070534629762373,0.46427991455763656,0.45793577538913643,0.45167260303658113,0.4454900252316853,0.4393876266019828,0.4333649518945337,0.4274215090234983,0.4215567719499824,0.41577018340223604,0.4100611574439622,0.40442908189818266,0.39887332063379827,0.39339321572167263,0.38798808946678454,0.3826572463226956,0.37739997469430886,0.372215548634624,0.3671032294409258,0.36206226715560624,0.9999519369223173,0.9999124383068891,0.999853095074386,0.9997689551216536,0.9996549952875232,0.9995062443818816,0.9993178809083438,0.9990853075562837,0.9988042055894495,0.9984705723558034,0.998080744963606,0.9976314128446473,0.9971196224581443,0.9965427707992686,0.9958986023750145,0.9951851939872693,0.9944009408980707,0.9935445403547565,0.9926149739626674,0.9916114894461072,0.9905335822168595,0.989380977071009,0.9881536102553222,0.9868516120806602,0.9854752902090461,0.9840251137006882,0.9825016978755223,0.9809057900190528,0.9792382559430846,0.9775000673972809,0.9756922903164343,0.9738160802329093,0.971872646930281,0.969863282484175,0.9677893278320637,0.9656521708853452,0.9634532391537901,0.9611939929717034,0.9588759192886247,0.9565005259883365,0.954069336701161,0.9515838860759298,0.9490457154795401,0.9464563690936029,0.9438173903793322,0.941130318883459,0.9383966873595663,0.9356180191808351,0.9327958260217081,0.929931605787469,0.9270268407721288,0.9240829960263645,0.9211015179185207,0.9180838328728892,0.9150313462706133,0.9119454414996248,0.9088274791410242,0.9056787962802406,0.9025007059321863,0.8992944965704316,0.8960614317511789,0.892802749823533,0.8895196637182038
0.9886734883706287,0.9858455091877528,0.9827065766177605,0.979268436747855,0.9755438240308174,0.9715459972797515,0.967288405982307,0.9627844558339591,0.9580473567533421,0.9530899859247545,0.9479248700428348,0.9425641176884214,0.9370194105206153,0.9313020003686854,0.925422715221291,0.9193919707238911,0.9132197847791619,0.9069157935818866,0.900489267965209,0.8939491293339699,0.887303964748229,0.8805620409234057,0.873731317054033,0.8668194564622164,0.8598338371320361,0.8527815612268039,0.8456694637043854,0.8385041440653296,0.8312918780202101,0.8240387671381119,0.8167506498534259,0.8094331310407824,0.802091587568897,0.7947311736473482,0.7873568260222101,0.7799732690660143,0.7725850197981072,0.7651963928631518,0.7578115054883019,0.7504342824333916,0.7430684609432912,0.7357175957072555,0.7283850638265921,0.7210740697891621,0.7137876504470481,0.7065286799920681,0.6992998749226231,0.6921037989945463,0.6849428681481412,0.6778193554033638,0.6707353957150943,0.6636929907806007,0.6566940137915982,0.649740214123697,0.6428332219565067,0.6359745528181916,0.6291656120488291,0.6224076991774992,0.6157020122086182,0.6090496518136073,0.6024516254245561,0.5959088512270799,0.589422162050104,0.5829923091507977,0.5766200080891762,0.5703057731281752,0.5640501750346798,0.5578536744947868,0.5517166679435787,0.5456394907076639,0.5396224200417831,0.5336656780605588,0.527769434566719,0.5219338097773001,0.5161588769495258,0.5104446649082,0.5047911604765868,0.4991983108128571,0.4936660256542786,0.48819417947139454,0.4827826135345015,0.47743113789477754,0.4721395332824497,0.46690755292440417,0.46173492428365936,0.4566213507231187,0.45156651309601387,0.44657007126543474,0.44163166555532096,0.43675091813525957,0.43192743434140657,0.4271608039358062,0.4224506023063467,0.41779639160954574,0.41319772185830755,0.4086541319567549,0.9999344817720521,0.9998939398722506,0.9998382718886402,0.9997648005070509,0.9996708640155157,0.9995538498699685,0.9994112223461856,0.9992405446859027,0.9990394964041023,0.9988058863586828,0.9985376621514996,0.9982329163900839,0.9978898908972695,0.9975069757530248,0.9970827122678758,0.9966157888305166,0.9961050383115395,0.9955494339865689,0.9949480847342405,0.9943002296931915,0.9936052325329671,0.9928625754681885,0.9920718531231345,0.9912327663347607,0.9903451159658062,0.9894087967856804,0.9884237914649647,0.9873901647193929,0.9863080576307698,0.98517768216526,0.9839993159036635,0.9827733011499584,0.9815000236412235,0.9801799324254903,0.9788135193476729,0.9774013189157034,0.9759439043919503,0.974441884103399,0.9728958979644132,0.9713066142051398,0.9696747262980917,0.9680009500750701,0.9662860210263713,0.9645306917741158,0.9627357297115358,0.9609019148001134,0.9590300375165919,0.957120896942062,0.9551752989855296,0.9531940547346072,0.9511779789262351,0.9491278885306041,0.9470446014417311,0.9449289352684256,0.9427817062196657,0.9406037280786838,0.938395811260347,0.9361587619466804,0.9338933812956568,0.9316004647186257,0.9292808012220055,0.9269351728091109,0.9245643539381982
0.999021999539741,0.9984918717977258,0.9977801598091901,0.996857697557421,0.9956969031126013,0.9942724176086046,0.9925615731240492,0.9905447044655897,0.988205329222115,0.9855301937243799,0.9825092663598577,0.979135620748219,0.9754052836835533,0.971317041106726,0.9668722187239264,0.9620744479196608,0.9569294254917218,0.9514446738786817,0.945629306962141,0.9394938051936832,0.9330498026979547,0.9263098881117704,0.9192874202069986,0.9119963587853916,0.9044511109018724,0.8966663921469328,0.888657102479525,0.8804382436002178,0.8720247116893854,0.8634313765036994,0.8546728990038108,0.8457636951025037,0.8367178819453345,0.827549232852443,0.8182711400909636,0.8088965846907753,0.799438112564027,0.7899078162389322,0.7803173215691918,0.7706777788308662,0.7609998576677705,0.7512937453938298,0.7415691482059146,0.7318352949032123,0.7221009427490007,0.7123743851477261,0.7026634608445651,0.6929755643861981,0.6833176576104563,0.673696281958944,0.6641175714307774,0.6545872660174322,0.6451107254784391,0.6356929433354894,0.6263385609785608,0.617051881792076,0.6078368852220021,0.5986972407163306,0.5896363214816411,0.5806572180075983,0.5717627513193215,0.5629554859247463,0.5542377424304147,0.5456116098047066,0.5370790137164206,0.5286415016347993,0.5203005945238388,0.5120575699037054,0.5039135292586767,0.4958694079782145,0.4879259849051286,0.48008389149494235,0.4723436205920468,0.464705534829456,0.45716987465999614,0.4497367660275835,0.442406227687916,0.43517817818840937,0.4280524425176117,0.4210287584346003,0.41410678248905375,0.40728609574278946,0.4005662092035924,0.3939465689821235,0.3874265611826103,0.3810055165379079,0.3746827147993321,0.3684573888914933,0.3623287288421205,0.3562958854966327,0.3503579740269575,0.3445140772438236,0.3387632487214713,0.33310451574345157,0.32753688207787673,0.3220593305902124,0.9999999292689149,0.9999998232698134,0.9999996070879816,0.9999992035660407,0.9999985021088834,0.9999973519040098,0.9999955555609006,0.9999928634293973,0.9999889687946821,0.999983504082312,0.999976038147255,0.9999660746689946,0.9999530516564403,0.9999363418677252,0.9999152544016007,0.9998890369357488,0.9998568788138672,0.9998179147523298,0.9997712290741959,0.9997158603625111,0.9996508064304183,0.9995750295128731,0.9994874615931358,0.9993870097861393,0.9992725617099848,0.9991429907858331,0.9989971614151787,0.9988339339917078,0.9986521697126177,0.9984507351612691,0.9982285066394221,0.9979843750825995,0.9977172465281122,0.997426050485559,0.9971097399832177,0.9967672952737389,0.9963977264817403,0.996000075973853,0.9955734204587192,0.9951168728259971,0.9946295837346334,0.9941107429616005,0.9935595805229739,0.9929753675796708,0.9923574171404601,0.9917050845749568,0.991017767949282,0.990294908196956,0.9895359891373321,0.9887405373535997,0.9879081219419957,0.9870383541434631,0.9861308868685358,0.9851854141257546,0.9842016703634228,0.9831794297340029,0.9821185052899487,0.9810187481192588,0.9798800464285263,0.9787023245807768,0.9774855420948925,0.9762296926129571,0.974934802841404
0.9188245933340471,0.9042177672427979,0.8889305471710299,0.873073835186798,0.8567504617224053,0.8400552946228935,0.8230754053099517,0.8058902873484262,0.7885721527838436,0.7711861276463394,0.7537907718298318,0.7364383381501937,0.7191751934331875,0.7020422204799662,0.6850752218910322,0.6683053191665916,0.6517593417264685,0.6354602016846466,0.6194272513044481,0.6036766210159308,0.5882215366856236,0.5730726154927991,0.5582381402970661,0.5437243127942444,0.5295354860678219,0.515674377368206,0.5021422621066475,0.4889391935157574,0.4760639878251959,0.46351463206064547,0.45128823736747353,0.43938120040338063,0.427789308214237,0.4165078320810292,0.4055316113083644,0.3948551278640719,0.38447257271717844,0.3743779046594696,0.3645649023351377,0.3550272101444712,0.3457583786317119,0.33675189991446436,0.328001238662567,0.3194998590882273,0.3112412483664662,0.30321893686544044,0.2954265155299096,0.2878576507278266,0.28050609683960137,0.27336570684183803,0.2664304411120842,0.2596943746581969,0.2531517029551221,0.24679674655304562,0.24062395460384106,0.23462790743735354,0.22880331830517103,0.22314503439702704,0.2176480372237003,0.21230744245014604,0.2071184992534635,0.20207658927211758,0.19717722520547337,0.19241604911609916,0.18778886082500573,0.18329149352886104,0.17891999610818893,0.17467050667706924,0.1705392812200628,0.16652269092085936,0.16261721942553664,0.1588194600596737,0.15512611301614784,0.1515339825282722,0.1480399740410133,0.1446410913913034,0.14133443400694526,0.13811719413224113,0.1349866540872806,0.131940183566748,0.1289752369831672,0.1260893508586602,0.1232801412685596,0.12054530133955985,0.11788259880451636,0.11528987361550061,0.11276503561627031,0.11030606227493157,0.10791099647722885,0.10557794438060443,0.10330507332891652,0.1010906098274837,0.09893283757793445,0.09683009557218095,0.09478077624469812,0.092783323682176,0.9999998936563469,0.9999996904065651,0.9999992230610116,0.9999982645998379,0.9999964698496437,0.9999933482391893,0.9999882395767762,0.9999802943591802,0.9999684595834231,0.9999514705210385,0.9999278484797262,0.9998959042390227,0.9998537466860552,0.9997992954900636,0.9997302981217047,0.9996443490288035,0.9995389111875218,0.9994113389247365,0.9992589014232727,0.9990788063436479,0.9988682230824255,0.998624305272366,0.9983442122100036,0.9980251289700479,0.9976642850319577,0.9972589713016994,0.9968065554611324,0.9963044956189742,0.9957503522714992,0.995141798608646,0.9944766292228303,0.9937527698015364,0.9929682730500992,0.9921213375307122,0.9912103013937221,0.9902336467011809,0.989190000399512,0.9880781343503371,0.9868969645169657,0.9856455494003384,0.9843230878137416,0.9829289160806532,0.9814625047347789,0.9799234547958655,0.9783114936893597,0.9766264708724908,0.9748683532239955,0.973037220249509,0.9711332591496853,0.9691567597933642,0.9671081096336671,0.9649877886007053,0.9627963640006951,0.960534485447658,0.9582028798505444,0.9558023464755501,0.9533337521005903,0.9507980262763358,0.9481961567058804,0.9455291847530211,0.9427982010872201,0.9400043414716279,0.93714878269901
0.9295656196887301,0.9182080258828922,0.9063897093046349,0.8941910056292575,0.881685920197099,0.8689418910074147,0.8560198215632135,0.8429742950342339,0.829853925580079,0.8167016676708032,0.8035553769075525,0.7904481618967645,0.7774088384089638,0.7644623446237171,0.7516301328530037,0.7389305342281842,0.7263790948290599,0.7139888830921719,0.7017707692348215,0.6897336780012896,0.6778848163740803,0.6662298780657746,0.6547732266671787,0.6435180593117581,0.6324665526513015,0.6216199928422088,0.6109788911290266,0.6005431208595556,0.5903118703856298,0.5802839319975315,0.5704576338279236,0.5608309380634747,0.5514014967459597,0.5421667010212525,0.5331237245599014,0.5242695617963404,0.5156010615644784,0.5071149566449507,0.4988078896832249,0.49067643588746146,0.4827171228700481,0.474926447956561,0.4673008932500565,0.4598369387066608,0.4525310734499815,0.4453798055265557,0.43837967028202257,0.43152723751769273,0.4248191175693798,0.41825196643453816,0.4118224900596821,0.4055274478875641,0.39936365575248073,0.39332798820219345,0.3874173803161798,0.38162882908212165,0.3759593943856041,0.3704061996618237,0.36496643225261904,0.3596373435072627,0.35441624866110133,0.34930052652227833,0.3442876189933299,0.33937503045139344,0.3345603587149082,0.32984116674659664,0.32521517386531706,0.32068012600692986,0.31623382701816577,0.3118741375537162,0.30759897393651664,0.3034063069899473,0.2992941608496118,0.29526061176139556,0.2913037868716578,0.2874218630146602,0.28361306550166027,0.27987566691550514,0.276207985914032,0.2726083860451085,0.26907527457573627,0.26560710133726284,0.26220235758842947,0.2588595748976849,0.2555773240459433,0.2523542139507391,0.24918889061253044,0.2460800360837278,0.24302636746087247,0.24002663590024986,0.23707962565711194,0.23418415314857136,0.23133906604014617,0.22854324235585424,0.225795589611688,0.22309504397224628,0.9997612600321212,0.9996428656197315,0.9994929704258909,0.9993090331701514,0.9990887753119139,0.9988301407845047,0.9985312677264547,0.9981904691381498,0.9978062201662513,0.9973771499321944,0.9969020362483552,0.9963798019802178,0.9958095131583108,0.9951903723903983,0.9945217216190623,0.9938030350463533,0.9930339161453934,0.9922140932097598,0.9913434143801404,0.9904218422114577,0.9894494478609909,0.988426404985131,0.9873529834325989,0.9862295428176391,0.9850565260496726,0.9838344528873857,0.9825639135761269,0.9812455626183975,0.9798801127184916,0.9784683289342634,0.9770110230616362,0.9755090533397761,0.9739632992213746,0.9723746865253483,0.9707441630527773,0.9690726992398634,0.9673612841652287,0.9656109218285748,0.9638226276940488,0.9619974254901743,0.9601363442570302,0.958240415630527,0.9563106713530313,0.9543481409992247,0.9523538499058949,0.9503288172943163,0.9482740545739594,0.9461905638164639,0.9440793363890572,0.9419413517369268,0.939777576304433,0.9375889625854319,0.9353764482934191,0.9331409556426346,0.9308833907317151,0.9286046430219338,0.9263055849024991,0.9239870713358325,0.9216499395761586,0.9192950089551686,0.9169230807288989,0.9145349379803646,0.9121313455728445
